249 297 75.5
418 106 75.5
318 294 69.5
62 95 79.5
219 440 64.5
246.9 119 140
420 322 209.5
181 118.9 250
466 297 239.5
192 376 89.5
73 65 25.5
4 341.1 35
217 277 129.5
475 138 334.5
17.9 1 255
301 312 254.5
504.9 401 220
27 461.1 205
166 22 149.5
226 169 35.5
149 111 230.5
299 501 64.5
437 312.1 265
187 211 115.5
95 285 110.5
452 317 279.5
315 386 100.5
360 296 104.5
278 349 175.5
177.1 432 120
205 180 260.5
238 376.1 285
42 241 239.5
372 446 154.5
145 267 20.5
440 236 290.5
115.9 24 255
169 498 105.5
472 365.9 285
216 205 150.5
358 178 280.5
337 176 260.5
22 334 249.5
354 147 90.5
365.1 498 325
299 463 59.5
188 384.1 200
327 320 174.5
188.9 100 180
238 261 194.5
506 201 304.5
433 159 95.5
295.9 265 245
27 247.1 255
174 229 74.5
413 8.1 210
330 65 210.5
346 264 94.5
331.9 460 125
97.1 418 80
226 210.1 90
67 388 260.5
469.9 3 245
185 1 330.5
356.9 410 165
492 79.9 140
238 185 30.5
385 218 279.5
500.1 340 60
330.1 354 175
162.9 371 20
303.1 98 250
100 242 34.5
25 174.9 120
450.1 382 300
188 209 315.5
94 415 215.5
95 451 305.5
107 430 190.5
369.1 239 160
221.9 276 40
81 358 34.5
209 329.1 125
172 364 290.5
277 92.9 245
286 409.9 310
59 334 305.5
501.1 58 295
13 179.9 120
186.9 10 315
446 187 220.5
58 185.1 200
352 377.9 80
466 161.9 315
156 338.9 115
337 249.9 170
4 61 95.5
154.9 313 220
43 323.9 200
105 67 40.5
397 141 230.5
205.9 325 240
322 497 94.5
183 372.1 50
18.1 244 230
360.9 115 160
33 22 59.5
379.1 350 140
419 290.9 335
404 491 55.5
117.1 202 220
475 257 284.5
397 247 124.5
47 407.9 95
309 254.9 145
170.1 369 285
377 290 144.5
266 37 64.5
458 325 65.5
323 489 150.5
139 408.9 295
267 268 30.5
132 471.9 15
288 160 120.5
334 368 190.5
447.9 451 310
14.1 159 290
5 69 25.5
376 507 224.5
383 493 84.5
277 372 94.5
71 87.1 320
362 74 75.5
320 294 69.5
154 139 260.5
468 364 20.5
125 468 124.5
198 309 294.5
177 21.9 320
111 107 30.5
344 319 235.5
468 307.1 115
197.1 47 140
469 161.9 330
406 318.9 150
259.9 193 290
258.9 146 45
164 8.1 80
139 69 305.5
468 310 105.5
273 400 279.5
63 292 40.5
361 472 84.5
276 160 54.5
280 428.9 120
382 175.1 250
469 68.9 185
397 32.1 160
241 430 190.5
245 348.1 60
225.9 327 155
467 429 235.5
216 315.9 250
90 172.9 330
349 125.9 260
483 84.1 85
30 287 204.5
49.9 320 225
153 83 220.5
206 507 74.5
420 512 60.5
46 57.9 255
37 416.1 145
40 435 9.5
89 324.1 235
484 104 220.5
18 332 80.5
126 421 330.5
6 2 184.5
288 371 99.5
328 321.1 330
289 144.1 255
278.9 396 140
211 428 80.5
6 173 105.5
191.9 217 180
170 442 170.5
136 457.9 220
445 233 299.5
64.9 204 275
471 484 119.5
359 184.1 305
282 21.9 235
494.9 215 85
491 241 324.5
210 305.9 305
123 207.9 215
250 379 25.5
375 336 304.5
287.1 234 215
313 115 294.5
246 454 235.5
193 1.9 270
435.9 290 130
194 117 100.5
149 186 130.5
353 403 55.5
310 479 164.5
324 73.9 235
84.1 292 180
422 290 90.5
202 54 214.5
220 66 85.5
256 228 300.5
426.1 490 305
3 354.9 105
436 88 279.5
424 101.9 320
465 383 25.5
466 18 244.5
411 501 69.5
269 287.1 230
453 19 90.5
173 264 190.5
454 434.1 85
456 220 114.5
28 414 190.5
98 1 140.5
64 205 265.5
369 320 299.5
20 355.9 5
366 215 330.5
487 96 315.5
320 229.9 85
458 69 330.5
12.9 66 170
221 355 69.5
429 419 175.5
133 86 120.5
168 483.1 170
165 283 69.5
21 6 30.5
41 12 30.5
224 379 25.5
308.9 220 160
381 311 194.5
262 346 289.5
47 269 115.5
295.1 424 305
389 48.9 220
214 151 294.5
172 391 154.5
408 269.1 45
395 399 244.5
184.9 435 50
459 504.1 255
97 459.1 275
257 265 44.5
391 188 179.5
253.1 184 325
465 17 249.5
447 433 139.5
460 68 69.5
169 334.9 290
400 124.1 265
386 448 330.5
188.1 17 225
245 400.1 165
459 218 185.5
338 440 184.5
456.1 18 105
167 85 129.5
270 10 64.5
85 253 159.5
354 82.9 110
79 246 64.5
160 506 219.5
428 351 124.5
83.9 46 35
194 263 25.5
374.1 504 210
88 176 255.5
346.1 137 325
86 291.9 200
37 15 315.5
250 250 255.5
240 1.1 130
155 171 24.5
191 52.1 330
327.9 244 275
334 434 85.5
156 206 284.5
170 196 69.5
267 290 215.5
417 475 80.5
188.9 406 155
278 302 250.5
268 132 305.5
458 135 144.5
153 170 24.5
491 351 59.5
61 55 30.5
368 194 89.5
193.1 295 335
285 225.1 325
96 189 109.5
431 210 195.5
43 34 64.5
380 462 134.5
63 171.9 280
327 64 234.5
483 424 145.5
292 27.9 195
283 307 250.5
6 230 119.5
490.9 333 260
211 499 230.5
260 382 59.5
160 98.1 60
382 318 175.5
276 443 25.5
259 267.9 225
206.1 241 225
395 77 64.5
160 97 124.5
465 377.1 25
45 43 54.5
210 387 69.5
35 280 225.5
134 83 255.5
465.1 59 215
433 181.9 330
382 104 250.5
175 26 64.5
361.1 327 95
462.9 287 115
393.1 494 90
267 168 59.5
279 428 64.5
268 257 90.5
451 106.9 215
292 275 290.5
366 265 115.5
400 353 210.5
113 391 100.5
137 427.1 150
288 312 284.5
225 152.9 295
339 393.9 200
509 41 79.5
201 257 25.5
114 394.9 270
309 404 244.5
126.1 77 315
158 298 159.5
23.1 282 235
488 410 104.5
416 325.1 250
206 117 324.5
294.9 242 200
86.9 285 270
270.9 251 100
464 408 30.5
259 467.9 255
158 171.1 165
72.9 394 270
136.9 291 25
266 296.9 240
392 314.9 160
444 427 100.5
135 142 30.5
258 333 80.5
179 436 170.5
389 34 64.5
244 154 219.5
214 128 239.5
365 488.9 200
82 323.1 230
281 25 54.5
82 198 155.5
28 191.9 55
191 449 244.5
262 488 99.5
4.9 365 205
326 504 175.5
109 359 39.5
342 142 99.5
2 407 54.5
151 176.1 160
310.1 177 260
395.1 352 70
27 502 320.5
274 439.1 180
123 415 64.5
449 430.1 95
353 15 65.5
356 40.9 100
31 492 80.5
74 391.1 230
345 118.1 310
107 68 40.5
111 375 10.5
41.1 139 190
178 140.1 140
40 200.9 90
425 354 174.5
216 208 69.5
371 288.1 155
441 87.9 115
182 31 64.5
422.9 401 275
55 197.9 40
43 319.9 240
384.1 351 110
490 230 239.5
111 316 114.5
422 292 104.5
336 382 190.5
427 205 215.5
295 353 140.5
266.9 384 305
399 144 79.5
4.9 388 50
173 45 35.5
508 317 25.5
179.1 250 265
176 480 310.5
459 407.9 205
404.1 492 60
83.9 239 50
482.1 184 90
42.9 496 105
119 200 100.5
283.1 413 205
293 494 309.5
441 187 230.5
135.1 465 55
421 134 170.5
388 310.1 235
446 365 205.5
188.1 505 305
34 303 300.5
308 165.1 155
121 277 69.5
117.1 43 260
352 351.9 330
240.1 339 270
112 196 100.5
53.9 149 325
380 383 214.5
259 245 240.5
309 495 20.5
387.9 66 105
174 504 39.5
440 17.1 235
499 374.1 235
351 492 244.5
383.9 384 60
452 225.9 105
83 272 195.5
139 455.1 270
353 360 184.5
376 269 119.5
489 508 170.5
318.9 176 260
398 254 49.5
256 336 89.5
400.9 378 35
469 58 279.5
144 422 170.5
471 12 70.5
153.9 505 170
175 404 320.5
409 10 120.5
169.9 460 165
443 226.1 300
395 80 45.5
212.1 234 275
175 251 204.5
492 80.1 120
507 345 69.5
432.9 100 325
496 64.1 205
242 470.1 50
276.1 477 50
124 238 204.5
170.1 231 70
112 309 29.5
310 103 330.5
500 192.1 330
173 252 195.5
137.9 216 225
440.9 158 100
286 448 25.5
508 431 259.5
284 265 75.5
372.1 298 320
486 37 124.5
195 341.1 90
31 315 35.5
14.1 505 255
442 402.1 230
357.1 353 235
236 88 245.5
101 508 159.5
126 156 140.5
364 278 170.5
313 246 260.5
138 488 104.5
445.1 352 245
303.9 461 145
63 318 109.5
37.9 304 90
488 443 44.5
51 318.1 200
333 433 85.5
164.1 239 40
430 202 234.5
134 436.9 100
511 419 235.5
268.9 338 315
490 333 95.5
489 368.1 265
221 253 40.5
453 226.9 195
99 392.9 225
400 17 119.5
335 289 35.5
451 33.9 180
308 245.9 280
312 96.1 260
118.9 400 335
74 194 55.5
362 335.9 95
449.9 266 210
383 465 59.5
465 45.1 280
82 112 259.5
65 142 120.5
44.9 328 125
462 35 154.5
312 238 90.5
476 378 49.5
100.1 394 195
400.1 190 45
186 207 94.5
110.9 106 210
136 403 215.5
290 10 279.5
422.1 17 275
509 167.9 330
164 139 75.5
178 65 64.5
404 201 124.5
48 380.1 65
243 432 49.5
335 298 165.5
267 298.9 260
289 4.1 195
468 145 74.5
58.1 349 185
203 453 330.5
322.9 454 255
432 8.1 315
271.1 370 90
110 314 114.5
393 341.9 130
161 85 129.5
477 8 154.5
502 424 30.5
329 254 314.5
306 175 80.5
285 168.9 180
411 352 110.5
351.1 389 140
4 412 54.5
307.9 206 170
365 226 160.5
441 436 169.5
422 53 75.5
404.1 281 300
375 218.9 280
77.9 327 125
466 375 20.5
11 369 149.5
118.1 208 235
352 485 269.5
457 68 69.5
9 406.9 260
466 378.9 275
478 291.1 170
214.9 255 35
189 398 25.5
237 272 174.5
443 324.9 80
321.9 304 315
221 367 69.5
497.1 170 230
199 463 95.5
89 439 225.5
295 24 110.5
361 163.9 225
347 406 160.5
129 125 74.5
299 470.9 180
375 441 245.5
402 381 80.5
144 127 249.5
435 487 50.5
43 223 40.5
229 217 35.5
403.9 126 85
426 434 100.5
197 225.1 70
11 171.1 115
347 469 199.5
159 171.1 160
502 411.9 225
433 72 55.5
45 190 219.5
116 464 14.5
169.1 232 285
315 277 310.5
447 396.1 240
455 106 195.5
429 153.1 110
67 455 174.5
91 250 35.5
149.1 429 225
291 180.9 40
55.1 284 275
100 277 85.5
496 300 170.5
130.1 82 320
119.9 464 125
286 406.9 285
286 74 45.5
501 196.1 310
172.1 471 140
337 192 245.5
353 184.9 255
453 427 44.5
243 482.1 315
45.9 39 275
422 289 320.5
40 160 135.5
272 382.9 175
42 459 104.5
89 374.9 300
244 433.9 40
117 356 10.5
88 10 50.5
383 386.9 55
335 184 114.5
323 215.1 260
458 171.9 90
363.9 111 160
146 167 74.5
19 152.1 285
430 283 84.5
157 239.9 280
351.1 60 240
204 246 74.5
19.1 281 135
278 506 125.5
250 136 74.5
406 191 40.5
225.9 24 250
336 512 105.5
326 331 55.5
75.9 400 270
465.1 85 85
44.1 324 150
276 480 264.5
210 33 104.5
363 394.1 65
489 40 124.5
238.1 480 45
505 142 155.5
4.9 76 115
1.1 410 45
262 332.1 330
440 410.1 215
437.9 242 85
160 374.9 180
468 394 114.5
396 34.9 160
250 113 155.5
10 220.9 30
417 462 259.5
128 310 79.5
251 74 49.5
65 32 30.5
394 406 64.5
149 158 310.5
83 342.1 5
200 328 40.5
205 454 124.5
110 337 114.5
187 68 104.5
424 178.1 290
240 164 35.5
437 56 90.5
242.1 228 120
258 256.9 215
113 229.1 165
112 455 19.5
232.1 476 155
271 255 334.5
81 247.1 140
169 447 229.5
229 271.1 155
345 187 54.5
294 232 65.5
379 191.1 145
241 72 99.5
486 509 65.5
63 331 295.5
406 278.1 280
388 371.1 300
80 117.1 220
232 327 30.5
432.1 412 210
49 301 19.5
25 170 184.5
317.9 379 170
377 310.1 215
117 299.1 65
403.1 354 125
321 430.1 180
253 338.1 235
488 108 244.5
441 33 190.5
14.1 395 140
369.1 312 300
190 469 170.5
316 295 214.5
60 219 40.5
117 323 319.5
338 391 209.5
164 288.9 60
397 44.1 195
262.1 269 75
93.9 483 245
126.1 72 310
172 61 170.5
126 250 95.5
279 402.9 290
380 101 74.5
365 488 180.5
284.9 427 170
380 371 115.5
483 273 310.5
330 504.9 240
393 385 200.5
410 337.1 325
148 90 200.5
238 444.9 145
218 319 239.5
431.9 351 160
91.1 423 270
471 486.9 45
122 308 79.5
114 356 10.5
478.9 324 85
239 264 170.5
102 448 285.5
380.1 297 160
279 284.9 35
447 439 134.5
5 276.1 5
110 116.9 215
233 213.9 40
345.1 397 170
47 37 30.5
301 426 280.5
68 430 209.5
444 206 220.5
467 40 304.5
493 123 189.5
406 295.9 80
249 61 320.5
328 386 114.5
200 396.9 285
505 207.9 285
258 138 40.5
258 107 74.5
241 196 49.5
295.9 6 240
366 483.9 165
400 252.1 210
345 23 220.5
86.9 298 50
307.1 380 200
73 143.1 225
144.9 436 80
235 486.9 135
461 381 44.5
231 227 130.5
135 370 44.5
83 395 189.5
222 28 254.5
113.9 444 170
112 79 40.5
212 298 74.5
232 172 30.5
92 432.9 75
18 468 94.5
445 184 254.5
392 145.1 140
502.1 163 305
369 498.9 225
210.9 355 90
407.1 372 325
88 174 324.5
389 388 244.5
300 271.1 330
26 26 205.5
68 104 150.5
39 279 240.5
418 400 154.5
412 65 179.5
479 179.9 145
357 199.1 105
431 21 230.5
203.9 259 250
488 378 25.5
124.9 3 325
232 332 30.5
324 156 289.5
369 212 314.5
284 416 39.5
136 440.9 80
417 399.1 150
5 500 165.5
283.1 17 150
167.1 23 335
144 460 245.5
90 437 240.5
85 182 279.5
416 110 94.5
473 21 109.5
219.9 112 210
136 26 279.5
332 172 269.5
1.1 481 210
27 476 214.5
362 471 79.5
227.9 226 40
506.9 496 215
160 286 124.5
386 402 95.5
55 207 259.5
444 446 330.5
405.1 116 85
415 437.1 35
255 166 64.5
192.1 306 60
255 412 69.5
479 458.9 150
328 387 260.5
318 457 245.5
459 440 30.5
30 5 64.5
341 286.1 85
405 103 124.5
283.9 416 45
354 116 284.5
227 259.9 105
40 91.9 215
64 321 105.5
141 64 259.5
13 177.9 125
172 55 35.5
145 326 135.5
227.1 325 290
392 373.9 45
38 125 200.5
91 1.9 100
128 147 30.5
67.9 170 280
441.9 427 190
222 258 35.5
243.9 215 125
263.1 142 335
425 39 290.5
33 309 35.5
137 428 110.5
265 379 99.5
36.9 214 80
254 61.1 60
351 183 274.5
362 219.1 175
173 73 64.5
290 152.1 180
300 278 149.5
408 180.9 280
36 480 99.5
234 215 234.5
126 379 15.5
120 280 85.5
317 107 245.5
488.1 81 105
48 43 104.5
56.1 297 75
438 268 139.5
165 240 45.5
136 85 309.5
375 311 254.5
73 342 59.5
333 150 145.5
46.1 430 160
466 81 89.5
146 153.1 70
258.1 250 110
40 187 215.5
303 341 109.5
271.1 144 255
277 264.1 290
386 384 205.5
61 457 80.5
489.1 363 60
355 380 149.5
261.1 385 315
503 465 214.5
155 178 15.5
218 107.9 270
8.9 263 155
336 401 250.5
245 350 64.5
446 497 129.5
435 410.1 150
87 57 25.5
347 318.1 245
123.9 7 325
507 60.9 295
512 415 304.5
450.1 245 215
313 238 109.5
163.1 122 85
503 201 314.5
5.1 336 155
349 440.9 95
246.1 58 330
453 104 214.5
348 221 300.5
166.9 102 195
258.9 291 135
359 162 234.5
143.1 204 40
176 462 229.5
34 28 54.5
70 50 30.5
38 143 104.5
427 487.9 175
216 177 35.5
310 178 49.5
364 103 164.5
150 426.1 165
33 496 80.5
304 488.1 25
427 219.9 195
215 116 205.5
377.1 55 120
182.9 161 255
6 496.1 180
145 491 69.5
270 456 25.5
451 280 214.5
433 288 125.5
12 50 69.5
243 62 325.5
375.1 300 310
192.1 353 80
215 291 69.5
191 452 90.5
141 266.9 290
429 100 90.5
400 101.9 120
120 267 139.5
408 509 184.5
60 278 319.5
269 445.9 180
342 440 165.5
283 55 60.5
352 60.1 230
25 333 315.5
382.9 419 100
150 190 69.5
304 169 54.5
419 287 90.5
474 482 105.5
104 457 299.5
443.9 405 155
420 111 120.5
207.1 232 275
509 342.1 125
428 163 54.5
221 262 195.5
274 511 255.5
136 255 74.5
502 262 65.5
94 428 65.5
159 203 270.5
176 212 25.5
438 432.9 35
340.9 133 145
126.1 429 100
382.1 144 165
216 326 219.5
117 267 120.5
285 169 205.5
340.1 277 135
359 222 304.5
362 385 80.5
502 196.1 315
505.1 312 270
228.9 215 35
292 245.1 210
421 219.9 215
349 431.9 60
281 507 264.5
334 369 219.5
202 331 115.5
148.9 67 240
213 134.9 105
456 121.1 145
16 236 195.5
296 444 25.5
354 341 115.5
345 486 255.5
361 275 205.5
22 327.1 95
352 77.1 110
289.9 285 45
77 188 74.5
431.9 82 315
104.9 449 305
358 350 249.5
460 30 115.5
307.9 433 290
424 188.9 260
480 361 49.5
67 173 284.5
124 281 94.5
455 308.1 200
365 231 165.5
124 299 90.5
424 474 80.5
425 352 155.5
59 356 145.5
75 290.9 90
412 197 80.5
370 6 109.5
185 501 55.5
167 369 204.5
290 412 285.5
355 406.1 165
454.9 339 280
19 198.1 180
183.1 260 70
230 338 69.5
424 153.1 245
217 311 69.5
469.1 88 275
459 389 114.5
412 26 84.5
300 269 75.5
24 357 14.5
394 229 40.5
33 414 204.5
376.1 496 295
390 338 130.5
23.9 106 100
365 26 140.5
425 325 49.5
157 221 254.5
307 455 30.5
123 483 145.5
323.9 67 255
64 318.1 110
461 200.1 145
90.9 174 280
415 55 255.5
277 86.9 170
384 449 310.5
438.1 401 145
429 488.1 235
374 40 59.5
206.1 464 270
179 35 64.5
235 144 155.5
324 149 269.5
450 366 214.5
179 54 309.5
268 43 40.5
445 267 229.5
443 186.1 230
227 490 139.5
390.9 388 190
361 99.9 155
270 75 240.5
16 156.1 250
90 429 284.5
445 508 235.5
199.1 344 140
381 80 64.5
362 115.9 155
259 241 255.5
205 196 239.5
413 101.1 270
239 489 180.5
200 468 84.5
353 328 215.5
491 409 95.5
46 383 179.5
481 346.9 55
271 280 164.5
98 271 45.5
505 433 30.5
407.1 1 60
96 239 20.5
4 127 225.5
430 230 315.5
503 436 44.5
246 337 279.5
371.9 322 290
475 258 279.5
201 261 74.5
442.1 226 295
349 410 55.5
202 401.9 65
478.1 3 165
204 392 324.5
255 254 259.5
147 469 15.5
232 64 90.5
424.1 354 130
479 444 49.5
162 389.9 25
163 59 59.5
38 161 135.5
507 433 44.5
448 484 129.5
470 381 149.5
415.9 80 245
382.9 365 130
211 320 150.5
79 396 204.5
84 257 240.5
89 341.9 90
470.9 63 255
134 441 90.5
175 184.1 45
450.1 294 160
378 195 35.5
453 236 240.5
464 486 329.5
187 389 209.5
458 57 305.5
314.1 454 260
482 196 80.5
417 354 195.5
62 215 195.5
420 142.9 185
460 155.9 65
258.1 390 100
133 66.1 320
412 438 105.5
406 124 84.5
159.1 504 30
386.1 7 255
437 402.9 165
261 440 64.5
231.9 315 290
315 242 294.5
289 266 80.5
65 333 315.5
501 383 145.5
419 358 180.5
174 190 59.5
308 460 210.5
83 89 35.5
81 74.1 225
427 423 160.5
250 84 100.5
424 423 165.5
385 238 165.5
238 264 204.5
177 382 20.5
449 30.9 215
323 305 310.5
16 105 100.5
388 375 59.5
158.1 284 65
359 416 149.5
266 47 40.5
418 311 310.5
259 484 170.5
226 399 64.5
354 488.9 250
427 464 99.5
441 52 99.5
230 187 69.5
184 94.9 335
37.1 308 270
473.1 346 30
421 43.1 85
407.1 171 225
465 164 139.5
67.9 251 45
369 386 39.5
461 53.1 285
241 247.9 135
469 366 294.5
211 279.1 310
475.1 340 195
256 241.1 95
281 226.9 330
297 470 25.5
428 437.9 180
195.1 308 270
138.1 481 285
118 188 205.5
137 441 84.5
52.1 385 310
262.1 139 305
467 148 74.5
82.9 25 145
402 191 54.5
408.9 397 290
58 207 259.5
333 309 320.5
495 115 205.5
358 360 174.5
181 370 20.5
172 128 94.5
178.9 192 40
429 363 189.5
3 72 35.5
247 197 244.5
179 261 30.5
474 35 285.5
360 343.9 120
409.1 28 80
428 178 59.5
131 228 269.5
376 506.9 215
393 142.1 225
26 108 145.5
482 255.9 280
477 264 60.5
59 17 119.5
497 54 65.5
408 133 125.5
419 487.9 165
243 355 130.5
131 27 265.5
331.1 388 265
299 203 260.5
315 381 179.5
348.1 52 90
445.1 336 310
246 44 159.5
291 415 314.5
333 306 179.5
32 275 274.5
422 318 250.5
493 273 99.5
482 256 255.5
138.9 43 105
57 294 84.5
146 145.1 35
275 96 40.5
196 13 214.5
186 392.1 180
427 192.9 265
275 100 45.5
166 376 179.5
91 383 264.5
311.9 439 285
200 392.1 270
330 170 285.5
481 347 189.5
272 455 25.5
275.9 84 185
349 53 94.5
81 249 250.5
48 188 210.5
36 201 79.5
304 430 304.5
225 510 119.5
217 447 115.5
40.1 361 15
22.1 246 215
178 494.9 165
497.1 325 35
118 226.1 245
301.1 93 260
449 424 30.5
328 46.1 215
280.9 93 55
130 153 30.5
79 250 284.5
271 477 269.5
179 476 325.5
197.1 390 320
509.9 345 130
105.1 132 45
508 39 239.5
35 485.9 175
183 42 64.5
348 123 140.5
133 457 220.5
444.1 169 85
79 248.1 255
91 481.9 265
259 356 234.5
63 214 214.5
114 121.9 215
422.1 434 165
169 341 259.5
302 234 95.5
198.9 5 200
398 103 194.5
180 444 124.5
69 425 95.5
474.9 150 315
498 193 45.5
225 358 304.5
465.1 430 25
148 314 219.5
198.1 127 250
476 200.1 95
116 290.9 60
392 173.1 265
178 43 285.5
203 267 249.5
479 494 100.5
177 398 320.5
66 148 120.5
276 114 75.5
79 170 115.5
502 333 25.5
362 438.1 100
280.1 361 95
481 88 75.5
90.1 179 215
203.1 219 40
326.1 298 185
224 223 69.5
372 347 114.5
412 318 210.5
214.1 153 310
32 415.1 230
491 452.9 115
429 439.9 175
230 257 49.5
262 111 40.5
119 261.9 100
415 113 94.5
6 336.9 175
397 316 145.5
90 169 120.5
506 442 244.5
257 87 35.5
225 278 120.5
91.1 464 285
107 352.9 165
238 113.1 55
449 101 205.5
491 113 239.5
352 350 204.5
329.9 166 155
345 337 104.5
124.1 435 50
358 490 144.5
474.1 495 30
437 417 159.5
210 429.9 90
353 336 219.5
58 451.9 170
456.9 449 260
244.1 252 230
257.9 389 30
98 372.1 105
302 372 195.5
315.1 429 190
261.9 61 330
55 198 285.5
285 227 315.5
86 197 174.5
17.1 165 230
504 471.1 185
473.9 17 90
176 83 99.5
46 382.1 160
466 429 25.5
379 180.9 255
354.9 265 75
502 46 239.5
191 11 40.5
440.9 422 195
268 466 35.5
461 62 279.5
489.1 327 30
78 214 109.5
466 61 145.5
316 295.1 190
466 334 135.5
3.9 128 170
127 454 95.5
192.1 253 220
467 171 255.5
353.9 273 130
195 53 209.5
188 485 89.5
506 425 260.5
491 414 54.5
186.1 51 200
58 218.9 210
91 27 45.5
30 105 169.5
124 298 90.5
239.9 134 210
155 245 79.5
25.1 257 250
235 196.9 110
11 451.1 50
152 216.9 170
272 109 90.5
221 177 69.5
248 424 244.5
338 115.1 325
247 80.9 130
201 15.9 55
65 90.9 315
66 33 30.5
289.1 178 120
496 240 279.5
229 374 275.5
25 257 279.5
336.1 16 300
154 508 169.5
46 257 184.5
146.1 102 200
447 384 114.5
361 379 94.5
487 124 334.5
441 428 189.5
350 190.1 90
503 39.1 175
360.9 341 125
244 402.9 165
308 374.1 200
116 196 210.5
466 423 25.5
178 68 35.5
156 373 150.5
161 144 75.5
15.9 339 75
410 9 205.5
168.1 42 310
215 276 64.5
227 177 74.5
145 23 85.5
199.9 91 210
307.9 315 225
152 176.9 195
397 445 134.5
195 3 325.5
481 372 49.5
144 150 69.5
8 269.1 125
465 283 69.5
316 177 149.5
395 303 60.5
137 75 270.5
363 476.1 205
286 226 320.5
425.9 351 75
484 403 20.5
494 248.9 265
450 206 165.5
23.1 281 235
297 244 220.5
136 311 139.5
354 198 169.5
455 391 269.5
367 359 329.5
326 465.9 210
213.9 103 205
254 459.1 265
379.9 445 265
92 178.1 95
112 243 20.5
488 80 139.5
510 419 49.5
473 197 139.5
462.1 320 275
39 459.1 210
91 293.1 60
56.1 281 300
492 266 145.5
240 430.1 190
264 484 180.5
71.9 26 40
53 287.9 100
442 83.9 80
174 46 94.5
100 459.9 305
497 382 220.5
51.9 70 240
195 320.9 225
173 75 35.5
170 344 159.5
196 255 274.5
65 293.1 40
105 100.1 225
123 352 29.5
258 151 45.5
332.9 237 275
411 125.9 135
500.9 256 70
68 377 139.5
190 41 59.5
486 421 20.5
159 223 64.5
317 293.1 200
216 323 25.5
493 416 54.5
474 484 119.5
219 304 285.5
13.9 343 80
310 448 309.5
428 282.1 330
30 113 140.5
271 151 240.5
378 93.1 75
494 120.9 210
208 310.1 190
335.1 379 195
221.9 152 275
387.9 259 120
426 173.9 100
92.1 89 225
175.9 104 160
361 186 299.5
405 233 119.5
486 203 285.5
119 208 220.5
416 315 214.5
142.1 293 280
407 507.1 210
416.1 289 75
404 285 35.5
72 100.9 295
116 57 100.5
133 128 35.5
28 388 70.5
338 327 65.5
18 160 279.5
70.9 216 240
315 173 164.5
163 199 275.5
416 312 135.5
405 72 75.5
295 236.1 290
412 22.1 75
150.1 429 315
331 342.9 335
134 174 64.5
222 313.1 180
383 78 294.5
401 345 65.5
299 317 244.5
259 64 64.5
239 163 89.5
480 404 104.5
475 269 305.5
497.9 118 220
286 48 65.5
265 36 40.5
393 7.1 250
31.9 37 170
8 228 30.5
449 442 35.5
446 227 114.5
19.1 245 265
172 240 284.5
197 142.9 185
30 261 40.5
394 251 129.5
187 235 25.5
429 8 300.5
470 84 309.5
28.1 123 105
276 5 40.5
22 331 104.5
433 176.1 280
235 323.1 290
137 119 40.5
461 218 174.5
160 98 229.5
445 276 84.5
503 52 155.5
448 190 249.5
228 370 299.5
335 262 35.5
77 311.1 20
96 505 150.5
48 220 194.5
42 309 250.5
458 486 54.5
301 238.9 70
145.1 101 200
488 33.1 120
309 376 175.5
131 254 135.5
463 392 114.5
247 13 134.5
313 278 310.5
457 216.9 155
61 19 35.5
136 437 99.5
85 436 274.5
399.9 24 105
51 25 69.5
276 296 195.5
29 343 275.5
335 327.1 85
377 107 269.5
475 105 165.5
120 20.1 200
222 24 264.5
382 152 220.5
67.9 455 170
388 92.9 80
203 491 35.5
293 51 104.5
397.1 300 75
367 77 114.5
67 391 279.5
493 425 20.5
156 215 179.5
11.1 177 125
381.9 355 145
177 495 104.5
174 456 134.5
262 255.9 40
401 492 109.5
362 280 190.5
100 419.1 295
385 490 84.5
44 154 155.5
222 297 254.5
175 81 35.5
63 6 244.5
393 444.9 130
285 435 129.5
43 35 289.5
261 336.1 255
339 508.1 120
300 241 304.5
466.1 65 180
145.9 464 270
316.1 495 260
54.9 26 110
52 30 30.5
164.1 75 50
80 393.1 190
326.1 334 330
131 19 270.5
456 397 35.5
272 64.1 225
463 408 180.5
186 433.1 185
214 202 30.5
133.9 422 115
440 258.1 190
141 483 270.5
349 242 89.5
472 406 20.5
165 400.9 105
509 109 105.5
502 480 175.5
401 316 169.5
322 108.1 260
63 272 320.5
17 181 29.5
492 266 165.5
469.9 148 190
274 93 40.5
455 383 299.5
318.9 175 265
235 238 120.5
43 251 195.5
331 383.1 275
364 275.1 205
63 82 104.5
471 206 80.5
65 225 80.5
492 447 30.5
341.1 261 90
426 358 70.5
504 195 139.5
480 351 170.5
30 105 145.5
267 37 40.5
37 471 90.5
301.9 252 250
231.1 183 125
318 483 59.5
506 456 210.5
88 428 289.5
469 134.1 85
347.9 235 90
188 87.1 210
114 68 170.5
31.9 457 290
283.9 142 240
143 479 289.5
217 284 64.5
109 366 300.5
279 440 189.5
491 158 269.5
11 244 315.5
100 62 195.5
425 489 310.5
157 225.9 40
60 349 189.5
324 163 140.5
507 412 79.5
419 274 164.5
339 130 140.5
4.1 67 130
381 102 79.5
373 313 204.5
288 357 230.5
494 359 64.5
251.9 257 135
136.1 371 55
421 29.1 80
21 92.9 295
176 481 250.5
133 147 304.5
115 273.9 130
261 417 25.5
494 308 25.5
480 374 89.5
220 358 25.5
242 284 60.5
120 305 60.5
394 29 94.5
334.1 317 270
495 115 114.5
295 488.9 290
393.1 10 230
333 501 59.5
487 418 54.5
31 442.9 275
90 482 274.5
394 7 249.5
149.9 22 180
361.1 490 220
283.9 497 260
355 477 165.5
225.9 509 115
259 503.1 255
255 391 69.5
404 145 65.5
377 45 110.5
402 312.1 150
455 304 110.5
259.1 412 190
15 221 69.5
30 330 9.5
208 382.1 70
71.9 175 265
418 342.1 70
112 234 215.5
425 46 75.5
175.1 82 95
51 386 150.5
67 319.9 150
487 332.9 95
80.1 251 150
423 356.1 185
117 289 64.5
221 312.9 300
12 397 174.5
190 398 44.5
309.9 197 290
507.1 262 100
344 402.9 180
380 439 129.5
190.1 138 190
474 316.9 120
48 270 19.5
375 28 185.5
303.1 208 170
283 443 64.5
316 101.1 245
175 416.9 310
69 148.9 210
251 255 144.5
72 143.1 200
343 440 189.5
149 293 289.5
440 167 75.5
357 481 229.5
113 201 100.5
182 57 35.5
23.1 284 230
369 185 239.5
284.9 92 235
300 270 130.5
399.9 236 180
283 473.9 190
356 16 65.5
65 149 120.5
70 295.1 55
74.9 46 160
378 128 74.5
302 446.1 55
167 227 174.5
340 439 165.5
35 1 330.5
382.9 487 75
495 239 220.5
34 481 204.5
102 332 255.5
249 501 80.5
476.9 269 260
54.9 385 160
477 433.1 330
322 57 195.5
195.1 169 325
69 467 100.5
64 330.1 320
286 346 164.5
396.1 38 165
279 90 140.5
218.1 288 330
410 496 69.5
205.9 361 110
132 310 79.5
209 442 199.5
22.9 510 250
140 270 274.5
463 13 70.5
61 203 334.5
235.1 93 240
166 458.1 155
131 435.9 80
483.1 207 45
204 312.1 195
109 324 105.5
342 407 225.5
191.9 68 280
324.9 63 230
186 443 269.5
331 193.1 260
151 282 64.5
378 46 215.5
141 263 280.5
105 219 74.5
492 450 129.5
286.9 225 325
52 358 130.5
191.1 391 240
352.1 189 320
403 143.1 70
161 339 134.5
197 299 334.5
356 383.9 140
103 440 290.5
278.9 507 270
242 438.1 70
488 483 30.5
441 5 100.5
147.9 139 60
102.9 64 60
84 80 239.5
83 174 289.5
284 451 89.5
114 142 190.5
377.1 246 320
7 494 289.5
115 360 309.5
410 237 184.5
77.1 405 35
367 437.1 110
92 496 29.5
92.1 180 195
190 266 74.5
42 329.9 135
197.1 316 60
409 185.1 45
423 147 45.5
462 155 64.5
124 20 199.5
305 198 220.5
87 185.9 70
17 156 279.5
137 371 64.5
245 42 159.5
275.9 300 250
372.9 24 100
157 5.9 280
51 154 305.5
66 389 279.5
248 105 74.5
176 369 294.5
280 366 85.5
10.9 158 40
423 459 259.5
244 257 229.5
471 220.9 85
3.9 74 35
394 26.9 75
470 83.1 80
274 255 104.5
383 182 230.5
411 506 184.5
279 42.1 75
167 105 199.5
404 233 119.5
291.9 348 90
433.9 441 250
14.1 381 290
266 162 64.5
139 79 334.5
343 125 159.5
325.9 146 335
493 382 25.5
72 414 35.5
39 328.9 125
432 491 215.5
213 467.1 250
489 60 65.5
338 217.9 90
201 470 109.5
59 425 310.5
108 471.9 225
369 442 169.5
111 377.9 25
234 274 164.5
240 63 325.5
164 341 139.5
301 271.1 335
141 257 305.5
52 155 324.5
1 54 59.5
25 110 150.5
450 339 265.5
87.9 237 220
73 453 40.5
459 326 79.5
24 249.1 335
150 506 119.5
332 187 95.5
475 330 190.5
266 458.9 30
300.9 368 220
125 257 149.5
204 248 74.5
174 202 25.5
266 107 40.5
318.1 203 325
42 44 260.5
327 482 30.5
251.9 501 280
189 383 20.5
35 103 109.5
182 478 235.5
196 453.9 45
509 489 230.5
451 431 249.5
187.1 499 325
155.1 504 200
206.1 451 120
292.9 69 70
3 66 104.5
201 238 30.5
197.1 175 315
82 480 270.5
338 383 224.5
450 505.1 250
207 45 234.5
299 500.9 235
164 286 99.5
423 159.9 100
23 332 325.5
330 316 150.5
423 182.1 50
351.1 177 150
323.1 464 115
327 259.9 305
140.1 160 325
458 56 135.5
100 422 70.5
432 300 95.5
453 385 30.5
111 156 135.5
103 272 90.5
399 499 134.5
199 181.9 290
299 309.9 255
205 445 64.5
143 114 230.5
225 291 59.5
429 276.9 220
186 97 310.5
18 415 9.5
190 181 110.5
219 225.1 300
455 28 115.5
362.1 323 95
211 53.1 185
224 511 70.5
160.1 284 90
309 508 205.5
247 76.9 140
15 506 250.5
108 240.1 335
37 479.9 200
26 263 255.5
60 31 30.5
177.9 455 125
129 161 324.5
101 310 24.5
276 89.9 165
229 438 74.5
273 265 319.5
374 335 294.5
23 329 85.5
225.1 373 295
340 86 124.5
51 91.1 70
475 180 130.5
351 3 79.5
32 440 285.5
458 173 75.5
297 307.1 260
104 104.9 210
283 475.9 185
111 170 234.5
77.9 103 300
245.9 428 215
402 320.9 70
234 320 64.5
447.1 477 130
512 138 150.5
81 286 265.5
275 302 250.5
202 1 59.5
147.1 305 250
443.1 384 110
312 474 25.5
305 313 69.5
463 408.9 185
505 412 269.5
52.9 427 290
382.9 25 90
10.9 387 320
37 338 24.5
428.1 426 135
460 168 325.5
512 95 60.5
73 450 49.5
473.1 451 180
123 115 30.5
302 225 140.5
186 209 94.5
496 243 220.5
408 166 254.5
153 140 279.5
377 504.9 285
374 256.1 110
265 428 64.5
216 233.9 70
241 425 64.5
213 324 69.5
311 239.1 280
149 152 94.5
279 280 164.5
424 149 59.5
299 337.1 95
169 132 94.5
185 111 89.5
338 381 119.5
503 171 195.5
200 128 240.5
469 13 130.5
298 498 244.5
398 442 110.5
13 202.9 165
22.9 475 85
161 499 49.5
335 297 65.5
428 349 155.5
498.9 115 215
381 377 219.5
501 306 34.5
382 93.1 75
133.9 143 300
32 195 195.5
342 65 230.5
402 325 70.5
209 393 69.5
68 307 10.5
459.9 172 235
381.9 207 110
307 203 169.5
308 299 30.5
31 335.1 300
143 471 50.5
292 223 219.5
27.1 511 95
157 432 314.5
433 14.9 315
469 394 20.5
20 505 180.5
306 189.1 295
82 38 35.5
46 42 35.5
497 421 30.5
428.1 82 295
294 167 214.5
141 188 64.5
435.9 9 235
504 182.1 145
165 54 35.5
195.9 17 215
262 447 25.5
17 434.1 325
315 279.9 315
199 458.9 45
467.9 30 130
136 426 104.5
451.1 205 160
49 72 244.5
505.9 173 250
139 509.9 130
359 180 240.5
233 480.1 110
146 413 225.5
393 389.9 195
359 45.9 205
288 418 185.5
65 63 155.5
428 432 115.5
258 60 334.5
317 116 255.5
328.1 110 115
474 293.1 160
471 358 44.5
289 13 269.5
409.1 225 190
454 454.9 70
86.1 133 110
512 60.1 255
510 261 194.5
42 4 30.5
390 499 95.5
457.1 454 230
26 508 329.5
163.1 339 280
306 190 254.5
110 376 34.5
289 418.1 190
211 237 74.5
98 386 239.5
457.9 236 265
407 131 125.5
464.1 61 200
503 40 225.5
46 295 5.5
492 348.1 55
470 361.1 25
349 402 150.5
401 401.9 325
332 153 235.5
379 71 299.5
32 283 215.5
24 224 129.5
217 223 80.5
303.9 164 180
117 264.9 95
365 475 150.5
43 302 295.5
321 495.1 250
281 303 294.5
273.9 249 35
403.9 20 105
422 153 45.5
94 181 259.5
169 506.9 40
19 376.1 260
190 246 74.5
483 171 165.5
467 484 40.5
34.1 435 25
82 475 59.5
194.1 376 90
356 240 179.5
284 476 59.5
86.1 101 45
358 354 290.5
68 356.9 30
290.9 73 70
193 382.9 85
8 340.1 120
256.1 191 280
303 368.1 205
349 177.1 270
289 167 219.5
437 24 185.5
260 348.9 235
383 487 270.5
406.9 127 265
85.1 241 65
481 3 174.5
221 436 55.5
134 140 299.5
35.1 5 330
42 17 304.5
78 44 69.5
190.9 502 330
275 160 59.5
137.1 53 245
7 235 119.5
375.9 444 60
446.1 169 80
127 248 174.5
174 1 59.5
60 299.1 15
171 36.9 335
139 132.1 275
379 197 84.5
252 108 35.5
140 303 84.5
358.9 212 180
354 202 150.5
210 494 254.5
391.1 24 90
204 388 315.5
110.9 396 195
77 174.9 125
503.9 50 165
331 226.1 255
216 479.1 105
19 480 80.5
373.1 450 280
408 443 39.5
279 149.1 220
389.9 373 80
378 130.1 65
343 176.1 265
406 463 250.5
509.1 403 330
302 378.9 295
142 402 280.5
172 20 40.5
279 37 129.5
219.1 369 265
432 166.1 325
356 222 314.5
511 410.9 315
365.9 184 245
16 410 99.5
79 92.1 75
387 217 109.5
490 451.9 130
146 155 74.5
296 94 224.5
400 325 79.5
507 489 94.5
146 286 314.5
273 27 64.5
251 107 189.5
117 305 79.5
357.9 38 70
424.9 341 40
380.1 459 140
265 41 40.5
25 252.9 235
234 474.1 150
341 106 80.5
67 224 94.5
56.1 294 80
259 253 44.5
272 76 185.5
492 498 79.5
190 287 64.5
72.1 195 180
351 385 30.5
4.9 366 205
455 442 30.5
481 402 154.5
219.9 288 285
379 357.9 145
286.9 99 220
151 8 84.5
391 388 209.5
75 81 35.5
187.9 85 55
87 288 280.5
436 287 285.5
329 432 194.5
384 305 165.5
142 401.1 210
463 286 60.5
486 208 40.5
126.1 253 155
281 487.1 265
196 309 265.5
176 376.9 270
17 509 240.5
145 161.9 325
284 357 254.5
450 78.1 90
37 94 74.5
467 464 190.5
160 239 110.5
501.1 472 305
293 95 224.5
452 192.1 215
206.1 200 50
488 361 25.5
249 379 324.5
357 338 110.5
302 350 149.5
4 268.9 145
196 231.1 30
249 494 270.5
286.9 435 125
460 451 244.5
419.9 322 325
43.1 281 270
327 114 114.5
70 320 159.5
440 377 184.5
135 88.9 290
310 273.1 320
183 56 299.5
305.9 216 170
144 268.1 260
206 175 160.5
67 343 24.5
83.9 285 90
320 183 159.5
240.1 144 215
50 18 30.5
281 298.9 205
384 288.9 140
402 104.1 185
147 95 190.5
500 302 120.5
270 166 35.5
98.1 319 285
364.9 21 150
430 362.1 180
293 307 150.5
201.1 333 50
448 163 64.5
189 71 279.5
243 263 180.5
289.9 280 150
484 376 89.5
237 211 234.5
76 195.9 180
384.1 253 285
417 75 244.5
190 387 20.5
336 357.9 185
360 365 225.5
472.9 347 320
466 81.9 320
17 333 94.5
155 280.9 220
412 488 184.5
31 21 234.5
16.1 176 35
480.9 417 155
242.1 429 55
238 509.1 275
101 90 25.5
335 196 109.5
101 49.9 100
16 383 69.5
330 124 104.5
172.9 76 120
315 382 114.5
205 179.1 265
24 97.9 285
73 419 44.5
383.9 209 110
354 337.1 255
113 271 115.5
347 485 250.5
169.9 276 205
66 149.1 155
118.1 123 210
84 284.1 300
267.9 385 305
289 386 324.5
345 447 60.5
509 475.9 200
219.9 151 275
468 114 134.5
25 456 74.5
142.9 431 65
8 66 189.5
488 401 64.5
290 221 205.5
454 124.9 155
292.9 313 160
259 251.1 40
466 77.1 310
272 64 235.5
303.9 348 110
2 254 199.5
421 320 40.5
280 51 109.5
206 446 64.5
120 457 19.5
402 353 44.5
382 367.1 305
441 183 249.5
219 146.9 325
257 230 309.5
198 45 114.5
437 281 84.5
20 173 44.5
453.1 215 165
496 371 70.5
71 270.1 325
405 13 55.5
399 352 210.5
446 430 220.5
31 30 99.5
104 297 55.5
296 167 40.5
30.1 90 190
214 497 249.5
226 154 69.5
275.9 84 235
329 309 165.5
324 457 230.5
176 504 25.5
268 292.1 265
511.9 484 270
454 476 134.5
203.9 108 325
283 407.1 215
347 184 264.5
245.1 460 260
426 180 275.5
385 141 74.5
82 269.9 220
303 276.9 75
238.1 85 330
445 370.1 180
93 419.9 215
308 313 69.5
396 122 50.5
21 161.9 255
63 67 235.5
171 151.9 265
67 343 230.5
167 391 85.5
226 165 74.5
274.1 511 255
456.9 349 230
172 383 65.5
459 444 30.5
449 466 115.5
103 373 119.5
181 36 64.5
126 302 20.5
85 360.1 325
35.9 425 215
105.9 329 255
174 385 20.5
75 484.9 70
473 185 139.5
12 489 24.5
411.9 52 175
490.9 502 75
497 402 215.5
423 174 95.5
507.1 311 265
288 314.9 260
91 468 270.5
248.1 346 250
114 58 105.5
343.9 185 270
84 326 220.5
383 507.9 225
401 490.1 85
441 441 45.5
439.9 74 65
219 398 25.5
68 188 204.5
490 487 59.5
18 492.9 20
169 431.1 295
444 484 45.5
460 316 279.5
386.1 385 230
447 371 175.5
60 278.9 315
420 48 75.5
104.9 347 20
507.9 172 205
495 200 324.5
169 32 40.5
368 284 114.5
82 369.9 5
45 313.1 225
444 431 249.5
416.9 100 240
29 93 180.5
146 282 310.5
193 64.1 95
216.9 131 230
178 71 25.5
338.9 250 160
501 50 79.5
136 456 59.5
293.9 61 65
27 46 80.5
262 249 90.5
247 488 189.5
387 41.9 335
429 94.1 335
40 202 89.5
182.9 505 30
462 281 129.5
266 331 94.5
334 188 114.5
434 278 125.5
302 470 150.5
422 228 320.5
511 97 259.5
111 339.9 110
228 323 25.5
176 227 275.5
99 197 140.5
477 216 129.5
25.1 24 210
250 86 40.5
171 387.1 155
358 489 144.5
409 280 270.5
446 340.9 300
478 6 140.5
349.1 340 125
151 381 149.5
368 333 324.5
16 505.9 190
386 437 110.5
116 177 210.5
36.9 486 180
477 146.9 310
388 313.9 255
496 303 125.5
51.1 384 320
186 99.9 205
131.9 157 310
379 258 129.5
166 442 229.5
90 51 240.5
399 416 70.5
467 296 174.5
304 445.9 320
425 160 59.5
330.9 224 235
209 284 285.5
428 482.1 215
55.1 395 125
423 403 309.5
385 249 314.5
276 360.9 165
300 349 154.5
108 398 199.5
278 3 64.5
438 502 220.5
223 159 64.5
209.1 111 230
314 176 274.5
500 407.1 255
185.1 367 85
427 456 99.5
25.9 284 140
252 181.9 200
51 11.1 220
233 319 30.5
1.1 456 45
208 274 329.5
93 377 279.5
488 123 90.5
414 345.1 210
362 76.1 110
501 38 129.5
165 25 40.5
261.9 258 240
200 21 40.5
129 83 120.5
198 226 74.5
381 335.1 305
300 245 279.5
216 144 310.5
99 191.1 155
143 24 85.5
495 372 240.5
399.9 366 80
414 346 290.5
202 130 235.5
4 397 285.5
331 125 99.5
323 438 174.5
206 45.1 130
50 222.9 165
104.1 352 155
141 218 190.5
379 205 105.5
395 252.1 225
62 348 189.5
217 151.9 305
488 199.1 90
31 210 300.5
504 307 34.5
132 425 134.5
183 227 74.5
130 286 20.5
427 336 49.5
146 362 15.5
278 111 90.5
142 46 264.5
426 469.1 245
359 212.1 175
23 417.1 135
6 493 289.5
363 114.9 155
411.1 197 75
402 25 70.5
96 394 80.5
292 29 95.5
142 333.9 150
439 453 99.5
81 26 154.5
27 155 55.5
384 455.9 320
377 254 70.5
230.9 444 130
209.9 317 255
505 42 79.5
368 218 280.5
44 461 80.5
486 431 30.5
73 484 280.5
136.1 462 285
114.1 121 220
97 13 50.5
103.9 41 55
180.9 461 215
417 59 75.5
273.1 398 300
149.9 85 280
32 132 95.5
82 285.1 120
80 309.1 20
438 300 100.5
93 427 94.5
294.1 241 265
38.1 385 180
318 386 169.5
95 420 289.5
399 179 235.5
87 244 175.5
322 241 289.5
60.1 395 215
218 300 25.5
203 130 300.5
473 362 44.5
2 135.9 185
292 322.9 80
104.9 14 65
459 394 30.5
441.1 450 50
15 501 204.5
425 188.9 285
416.1 305 100
108 213.9 75
115.1 379 25
243 36 165.5
485 391 20.5
255 158 40.5
467 175 230.5
273 443 64.5
438 263 170.5
467 411 54.5
174.1 484 135
275 102 45.5
143.9 457 55
362 256 330.5
346 188 160.5
483 196 70.5
132 346 115.5
169 203 25.5
431 21.9 300
11 334 84.5
323 506 189.5
439.9 377 175
142 418.1 200
455 109 204.5
342.9 28 220
127 405.9 305
190 433 75.5
158.1 101 40
109 436 175.5
337 3.1 285
454 64 125.5
170 484.1 165
289.1 229 200
40 223 54.5
436 411.1 140
21 459 50.5
258 463.1 270
407 288.1 80
154 282 50.5
509 111.9 115
203 261 245.5
222 279 54.5
68 47 69.5
456 415 35.5
234 308 35.5
250 94 69.5
352.1 442 180
21 171 49.5
407 14.9 225
449 163 115.5
81 324 239.5
328 296.9 180
54 343 29.5
236.1 507 290
205 51.9 160
246.9 215 310
111 433.9 195
82 140.9 295
211 426 80.5
497 239 225.5
328.9 222 250
61.9 489 280
239 215.1 250
164 123 124.5
250.9 161 210
264 452 165.5
176.1 262 60
334 287 204.5
33 442 20.5
152 209.9 30
508 487.9 270
391.1 219 50
142 48 245.5
361 487 229.5
283 439 115.5
219 369 274.5
238.1 425 35
428.1 449 85
47 188.9 220
118.9 73 170
350 428 64.5
437.9 281 80
119 405 324.5
13 106 100.5
216 256 200.5
78.9 143 180
6 494.9 280
497 269 99.5
469 469 175.5
376.9 425 125
201 247 220.5
60 287 74.5
432 201 225.5
407 376 300.5
307.9 189 245
262 165 64.5
66.9 346 240
43 23 64.5
86 397 184.5
126.1 267 65
32 436 329.5
473 314 134.5
4 335 69.5
487 71 199.5
32 100.1 155
189 396.9 25
278 278 44.5
166 185 30.5
272 497 125.5
54 96 79.5
14 452 80.5
169 77 35.5
303 481 25.5
512 62 230.5
78 127 190.5
454 169 244.5
275 448 64.5
442 17 200.5
270 119 139.5
7 492.9 290
498 398 199.5
394 287.1 200
486.1 367 55
177 11 249.5
298.9 19 210
334 336 139.5
249 191 84.5
26 430 320.5
129 451.9 220
183.1 479 150
348 498.9 230
187.1 444 245
361 330.1 100
35 282 5.5
108 135 64.5
255 241 114.5
238 94 249.5
218 222 309.5
488 442 44.5
413 399.1 275
197 263 25.5
124 484 164.5
181 447 325.5
406 128 84.5
423 269.9 180
297.9 11 235
220 108 264.5
124 214 239.5
225 404.9 60
462 286.9 70
119 155.9 50
33 471 90.5
333 191.9 110
309 181 264.5
67 212 59.5
485 199.1 305
46 457 89.5
452 280 215.5
412 124.9 185
398 220 244.5
417 292 65.5
320 240 284.5
383.1 88 280
367.9 483 165
507 366 89.5
104.1 432 195
398 45 129.5
113 445 169.5
71 34 30.5
459 512 70.5
303 211.1 160
244 347 30.5
235 487.9 195
415 329 324.5
469.1 91 270
247 401 69.5
209 130 109.5
318 380.1 155
13.1 155 300
125 401 80.5
338.9 384 110
256.1 268 35
230.1 416 50
278 260.1 75
176 504.1 40
428 371.9 170
496 116 205.5
446 340.1 280
232.9 204 100
175 479 320.5
6 346 25.5
453 66 144.5
380 202 54.5
274 73.9 235
24 226 129.5
250.9 165 70
46.1 272 135
2 16 149.5
103 189 99.5
480 403 95.5
382.9 386 110
348.1 275 65
512 428.1 70
469 485 54.5
257 464 250.5
44 246 219.5
94 460 285.5
112 445 150.5
497 491.1 95
451 250 195.5
113 242 330.5
394 183 165.5
240 426 224.5
162 89.1 210
7.9 370 200
181.9 46 300
58 344 29.5
269 5 64.5
506 349 315.5
431 448.9 245
237.1 85 335
330 351.1 210
303.9 92 260
289 275 154.5
194 58 330.5
494 436 30.5
392 31 160.5
402.1 462 255
257.1 331 150
354 141 330.5
67.9 86 175
132 172 64.5
441.9 176 320
108 350 9.5
55 155.1 300
336 289 134.5
464 139.1 205
88.9 174 95
85.1 371 285
331 297 199.5
200 291 280.5
276 73 40.5
189 218 170.5
246.9 226 125
183 61 35.5
23 222 59.5
494 371 25.5
463.1 501 285
499 192.1 330
415.1 409 235
201 305.1 235
140.1 92 225
300 492.9 280
171.1 457 130
474 310 215.5
181.1 480 150
39.9 220 285
114.9 174 230
225 223 69.5
210 60 184.5
365 187 279.5
75 314 19.5
407 410 84.5
34.1 303 90
261 316 110.5
504.1 331 60
121.9 123 225
8 346 85.5
295 485.1 275
148 174.9 225
327 294.9 130
421 132.1 175
504.1 172 190
422.1 99 335
202 258.1 265
432 418 170.5
290 227 219.5
471 330 334.5
139.9 37 105
495 355.1 300
89 445 9.5
399 452 115.5
410 388 144.5
105 215.9 330
401 340.1 125
490 445 30.5
121 259.1 130
434 339 179.5
458 2.9 75
47 366 159.5
467 49 134.5
151 377.1 140
393 149.9 140
95 70 25.5
128 148 30.5
452 27 140.5
402 140.9 130
293 318 65.5
79 108.1 250
416 442 30.5
330.1 311 270
428.1 194 260
4 221.1 30
269 97 74.5
504 259.1 180
145 408.1 255
293 236 290.5
437.1 28 205
447 477.9 125
142.9 492 280
350 123.9 280
359 161 220.5
58 203 240.5
277 107 120.5
95 58.9 235
442.1 188 220
372 63.1 305
143.1 169 260
77 485 69.5
204 278 25.5
279.1 477 55
354 160 244.5
39 117 229.5
433 346 155.5
179 375 20.5
330 247 189.5
265 274 30.5
36 15 30.5
476.1 418 155
298.1 299 40
427 406.1 240
23 94 60.5
62 438.9 5
130 283 189.5
203 347 85.5
424 173 59.5
429.1 292 130
314 421 195.5
395 438 110.5
331.1 400 125
138 121.1 60
165 229 174.5
141 162.9 155
354.1 336 255
370 498 329.5
364 108.1 270
48 159 164.5
28 1.9 75
299 413.1 290
66 96 70.5
444 494 115.5
363 190 270.5
500.1 266 80
449 431.1 100
330 151.1 165
266 156 59.5
172 405 320.5
341.9 187 255
465 253.9 245
185 440 265.5
186 183 115.5
488.9 167 90
220.9 501 105
176.1 8 135
496 254 65.5
170 79 64.5
34 405.9 100
158 191 94.5
263 135.1 315
154 176.9 220
126 401 154.5
117 68 179.5
334.9 314 150
116.9 29 260
33 398 80.5
413 192 54.5
304.9 343 105
123.9 237 165
33.9 476 220
404 381 314.5
326.1 69 215
92 44 50.5
67 204.9 325
314 204 140.5
73.1 78 240
121.9 95 65
202 465.9 60
151 26.9 170
380 174.1 265
490 327 279.5
55 362.9 140
72 101.9 150
188 301 74.5
279 480 30.5
121 145 69.5
443 185.1 240
87 21 50.5
137 461.9 265
128 267.1 120
175 68.9 155
492 214.9 90
469 275 94.5
231.9 315 275
189 121.9 110
296 233 315.5
17.1 166 225
348 271.1 125
165 69 25.5
288 26.9 200
456 399 35.5
231.9 371 290
226 426.9 90
496 427 44.5
296.9 160 215
476 172 80.5
269 407 25.5
131 456 264.5
295 236 35.5
355 257 84.5
1 393 305.5
502 110.1 325
477 335 324.5
172.1 46 90
75 485 275.5
231 343 69.5
338.9 408 260
304 235 104.5
102 158 139.5
77.1 471 135
113 87 25.5
279 48.1 70
101 365 39.5
459 391 44.5
482.9 430 55
95 3 84.5
148 245 105.5
316 301 195.5
443 234 95.5
466.1 69 215
494 164 250.5
496 359 164.5
207 193.9 240
491.1 39 125
197.1 121 320
434 453 80.5
230 146.1 85
494 376 64.5
285 287 30.5
85 174 70.5
459.9 199 200
215 276 330.5
430 194 240.5
322 506 199.5
106 349 184.5
246.9 336 245
359 182 275.5
125 157 69.5
452 235 235.5
143 110 249.5
139 142.9 275
421.1 423 175
124 56 109.5
484 372 75.5
477.9 91 250
489 500 65.5
19 82 329.5
331 223 244.5
42 296.1 5
471 167 269.5
505.1 328 55
37 390 170.5
98 359 39.5
493.9 422 25
363 1 164.5
346 233 80.5
413 144 59.5
287 69 45.5
469.1 368 35
57 151.1 165
143 443 79.5
371 443 284.5
47 46.9 50
212 237.9 250
187 206.1 55
357 333 265.5
154 374 119.5
182 70 104.5
421 159 89.5
172 436 285.5
317 147 275.5
471.9 159 310
262 254 44.5
7 69.1 105
195 165 159.5
224 387 229.5
189 378.1 230
436.9 179 330
338 258 85.5
112 443 14.5
266 119 75.5
233 291 74.5
1.1 405 260
12.9 64 160
303 234 230.5
325 68 90.5
37 341.1 25
307 246.9 150
99 47 69.5
79 244.1 290
249 352 144.5
500.9 243 320
140 476 50.5
99 465 20.5
501 51 325.5
385.1 9 260
175 180 270.5
137 254 330.5
342.1 393 175
318 456.1 215
260.1 385 100
179 369.1 45
275 356 165.5
404 382 110.5
117 235 174.5
460 207 204.5
271.9 369 185
220 400 64.5
78.1 120 215
427 406 255.5
35 88.9 210
177 209 69.5
10 98 60.5
378 53 110.5
455 217 100.5
493 118 95.5
213 398 64.5
354 343 190.5
385 399 100.5
428.1 490 230
274 64 45.5
498 120.9 295
110 458 144.5
351 3.9 175
299 476 59.5
186 59 35.5
13 174 29.5
45 314 269.5
149 4 70.5
21 56 100.5
210.9 466 275
31 216 319.5
36.9 211 310
469.1 361 280
504 315.1 35
165 196 25.5
65 444 104.5
118 301 29.5
69.1 358 30
348 400.9 185
1.9 315 55
428 439.9 160
138.1 491 330
42.9 468 180
215 426 80.5
271 59 89.5
472 361 25.5
46 386.9 60
318.9 381 170
60 429 14.5
54 12 215.5
420 76 64.5
420 457 254.5
334 298.9 75
370 206 100.5
133 308 65.5
414 379 295.5
36 398 80.5
125.1 250 160
441.1 270 205
465 10 235.5
503 348.1 325
416 165 244.5
182 435 175.5
394 198 40.5
326 266 284.5
7.1 265 95
137 88 240.5
180 369.1 45
385 408 95.5
28 504 110.5
7 333 155.5
422 171 95.5
307 113 285.5
113 472 190.5
262 470 274.5
305 98.9 240
80 256.1 235
358.1 443 170
402 184 165.5
127.1 67 325
504 65 249.5
65 220.1 90
255 450 60.5
27 493 124.5
305.1 394 240
507 376 69.5
26.1 23 45
140 474 50.5
131.9 251 155
231.9 302 50
146.1 96 195
252 196 75.5
25 273 265.5
361 440 95.5
156.9 277 135
3 487 275.5
96 263 54.5
109 359 9.5
383.9 197 80
69 198.1 60
222 362 285.5
488 117 90.5
182 491 264.5
350 68 234.5
197.1 116 120
330 165 275.5
148 449.9 60
195.1 205 200
395.1 315 60
194 347.1 85
216 275 64.5
103.1 218 300
277 390 114.5
108 399 170.5
319 492.1 270
301 352 115.5
192.1 459 205
109.1 338 110
445 118.1 330
90 404.1 135
190 160 145.5
303 478 59.5
107 443.9 180
155 276.1 210
406 289.1 75
91.9 118 120
399 231 175.5
221 280 115.5
419 298.1 100
507 483 170.5
286 142 285.5
43 276.1 250
174.9 445 160
413.1 192 160
304.1 278 70
446 49 119.5
333 130 164.5
172.1 49 305
42 326 139.5
180 490.9 280
180 208 69.5
344 494 244.5
510 166.1 270
177 38.1 295
332 345 160.5
23.9 237 200
487 500.1 95
221 224.9 70
366 336.9 325
405 173.1 275
212 235 274.5
338 214 94.5
261 248 114.5
170 213 25.5
400 178.9 275
488 221 70.5
118 116 74.5
5 11.9 150
421 62 254.5
339 502 244.5
446 224 299.5
304 169 169.5
1 73 269.5
253 62 300.5
142.9 277 25
110.1 320 335
207.9 54 215
234 439.1 140
237.9 34 190
275 365.1 95
54 303 5.5
101 194 169.5
94.9 486 235
313.1 371 75
304 303.1 225
192.1 342 100
350 427 55.5
468.1 267 270
304 221.9 170
167 208 25.5
122 133 74.5
499.9 327 270
1 6 304.5
101 462 294.5
195 310 64.5
405 196.9 135
310 298 30.5
413 303 35.5
202.1 46 160
401 248 49.5
181 103 89.5
183 113 240.5
6 411 39.5
375 258.1 120
479.9 213 130
248 251 225.5
22 117.1 140
424 191 279.5
22 139 79.5
497.1 327 35
283.1 427 140
382.1 348 250
497.1 488 175
355 198.1 100
327 214 310.5
442 88 144.5
359 442 179.5
110 172 234.5
444 466 129.5
381.1 455 140
322 443 80.5
189 458 100.5
98 179 199.5
150 279 110.5
63.1 232 90
177 125.9 100
96 90 25.5
382 344.9 290
290 268 94.5
456 234 195.5
202 264 25.5
345 322 254.5
412 313 135.5
246 165 74.5
28.1 289 45
408 495.1 165
265 324.1 145
213.1 158 240
108.9 341 190
298 204 284.5
445 411.9 215
28.9 45 85
507 395.1 165
295 210.9 225
185 14 230.5
464 65.9 270
183 274 64.5
340 123 79.5
498 168.9 270
325 73.9 100
78 41 69.5
391 250 274.5
28 196 54.5
46 292 5.5
488 379 64.5
150 402 124.5
43 189.9 220
282.9 134 320
174 476.1 335
315 465 54.5
334 153 145.5
248 239.1 110
79 58 74.5
80 128 185.5
450 212.9 200
502 48 220.5
263 383 49.5
121 206 210.5
456 216 100.5
375 177.1 235
105 230.1 160
289 430 140.5
258 202 230.5
74 207.1 100
265 287 44.5
472 348.9 35
274.1 18 240
511 28 279.5
478.9 331 60
405 332.1 75
504 261.1 165
371.1 258 115
160.9 474 300
127 164 30.5
475 396 95.5
500 264 189.5
80.9 127 210
38 97 60.5
395 288 185.5
404 382.9 305
347 323 225.5
217 281 305.5
294 502 59.5
373 294 330.5
205 395.9 70
215 227 80.5
381 195.1 40
186 86 34.5
422 213 195.5
316 181.9 45
153 174 85.5
242.9 479 110
417 192.1 90
244 495 285.5
419 137 194.5
464 73 320.5
378 355.1 130
488.1 371 60
272 403 54.5
100 309 15.5
346.1 178 155
9 223 44.5
235 69 320.5
209.9 394 25
337 203 235.5
121.1 390 145
7 13.9 265
495 65 195.5
326 308 314.5
159 383.9 45
393 350 235.5
150.9 430 170
405 498 130.5
471.1 273 295
338 39 305.5
103.1 217 325
394 133.1 240
400.9 255 230
448.1 212 190
499 426 30.5
232 77.1 290
276 512 279.5
15 386 144.5
371 441 64.5
264 294.9 255
347 328 244.5
40.1 308 260
282.1 266 275
77 477 129.5
437 290 270.5
45 383 55.5
484 335 49.5
483 378 94.5
286 21.9 240
343 186 54.5
159 218 259.5
427.1 348 160
58 183 205.5
278 406 249.5
181 233 74.5
341 314.1 265
314 441 274.5
342 187 255.5
292 343.1 160
450 426 44.5
41 476 140.5
479 269.1 330
189.1 446 250
280 79 40.5
280.1 429 160
122 299 20.5
225 508 79.5
266 460.9 55
27.9 248 250
462 148 195.5
85 285 124.5
57 414.9 95
438 208.9 215
245 86 114.5
255 167 64.5
453 172 220.5
58 349 235.5
201 293 25.5
249 502.9 270
230 202 90.5
76 28 315.5
285 460 25.5
280 42 70.5
366 60.1 315
102 21.1 170
131.9 163 315
171.9 18 145
492 247 260.5
180 436.9 55
138.9 252 70
381 295.1 315
265 67 265.5
45 223.9 85
446 452 314.5
1 339 69.5
280 13 64.5
359 76 130.5
430 432.9 215
348 241 175.5
420.1 154 105
408 448 105.5
502 266.9 80
473 127 85.5
173 469 139.5
84 238 234.5
170 417 314.5
199 507 240.5
467 250.1 270
387 76 45.5
401.1 439 120
74 395 269.5
166.1 279 150
55 386.9 305
