208 394 69.5
220 288 64.5
225 227 35.5
225 234 40.5
228 303 59.5
229 305 59.5
230 307 59.5
231 318 64.5
232 320 64.5
233 322 64.5
235 327 64.5
249 365 64.5
253 376 64.5
430 175 289.5
451 69 125.5
491 84 85.5
14 170 70.5
56 202 250.5
64 211 50.5
264 335 104.5
278 261 90.5
364 395 64.5
419 400 140.5
423 272 164.5
436 440 155.5
504 387 145.5
3 271 89.5
14 54 55.5
68 104 150.5
71 218 104.5
162 112 170.5
184 219 305.5
210 58 174.5
227 224 154.5
287 231 310.5
409 164.1 250
354 61 220.5
38 485 114.5
42 316 254.5
62 429 314.5
254 167 40.5
137 455 315.5
173 438 295.5
205 356 115.5
210 342 160.5
237 442 155.5
497 210 75.5
442 183 249.5
167 453 174.5
86 290 215.5
110 440 14.5
128 377 39.5
130 378 39.5
193 362 65.5
193 371 25.5
290 66 55.5
356 21 100.5
359 95 135.5
402 87 185.5
31 296.9 45
260 390 64.5
261 452 30.5
290 353 160.5
296 288 44.5
298 504 59.5
331 343 189.5
401 316 54.5
405 316 49.5
429 349 155.5
469 395 49.5
470 393 49.5
474 440 59.5
481 448 39.5
487 433 49.5
96 421.9 290
424.9 190 275
463 50 294.5
188.1 370 90
223 310 190.5
218 261 40.5
201 291 280.5
243.9 147 215
104 373 10.5
394 390 209.5
322 458.9 250
338.9 125 90
290 225 219.5
359.9 391 85
33.1 130 110
255 235.1 275
500 490 104.5
243 189 40.5
335 294 65.5
447 264 195.5
173 464 125.5
218 306 329.5
385 214 265.5
483.1 395 60
28 289 150.5
358 54 175.5
423.1 465 255
59 340 299.5
367 202.1 110
52 382 65.5
122 303.1 95
286 315 145.5
322 442 154.5
357 416 279.5
398 377 95.5
444 449 109.5
72 70 64.5
106 117 69.5
146 197 30.5
161 222 30.5
190 79 220.5
191 221 30.5
209 204 35.5
210 203 64.5
217 188 35.5
231 151 74.5
233 197 64.5
237 189 35.5
238 137 69.5
244 110 69.5
247 144 74.5
247 152 74.5
250 100 69.5
191 40 59.5
30 16 59.5
59 49 64.5
190 285 64.5
197 305 30.5
211 344 30.5
233 214 220.5
242 335 35.5
248 142 74.5
18 248.9 325
29 416 225.5
79 364 29.5
193 364 109.5
193 376 89.5
199 372 55.5
205 396 25.5
257 76 69.5
45 356 24.5
475 4 84.5
421 159 89.5
499 169 210.5
261 394 64.5
295 453 59.5
297 491 25.5
300 500 25.5
302 509 59.5
307 479 59.5
361 418 125.5
448 262 189.5
464 393 30.5
474 386 49.5
477 432 30.5
483 431 54.5
490 425 49.5
494 403 59.5
502 351 64.5
508 472 204.5
136 432 194.5
427 321 254.5
378.1 465 135
165.1 125 100
166 125.9 100
31 297 44.5
419 130 180.5
147.9 78 260
26 445 260.5
177 440.1 130
355 341.9 265
508 415.9 30
33 129.9 110
360 391 85.5
30 453 230.5
140 334 139.5
192 354 114.5
30 29.1 90
244 147 214.5
258 254 215.5
215 478.9 245
272 353 200.5
75 327 199.5
296 31.1 100
396 359 79.5
421 325 255.5
461 435 65.5
172 266 35.5
475 109 150.5
339 121 79.5
196 28 59.5
30 282 194.5
87 43 69.5
166 224 69.5
202 241 30.5
278 47 70.5
280 64 94.5
167 442.1 85
110 371 299.5
508 32.9 250
308 169 49.5
64 309 34.5
316 493 64.5
448 260 205.5
503 412 229.5
508 421 44.5
510 408 49.5
36 424 230.5
42 339 24.5
46 339 24.5
218 296 69.5
425.1 189 285
428 285.1 325
405 128 329.5
405 128 330.5
325 452 135.5
401 45.1 170
422 101.9 310
488.1 264 165
41 113 205.5
132 132 35.5
169 380 20.5
183 380 54.5
220 298 30.5
241 387 69.5
241 389 69.5
411 237 119.5
172 14 59.5
191 62 40.5
166 51 59.5
187 63 59.5
283 65 94.5
31.1 191 225
96 105 69.5
134 159 30.5
136 176 30.5
176 213 69.5
194 94 229.5
230 206 64.5
24 7 59.5
462 30.9 120
51 37 64.5
58 55 35.5
276 51 65.5
85 279.9 200
268 54 40.5
431 368 184.5
456 413 35.5
465 404 30.5
490 376 25.5
491 338 49.5
492 265 145.5
494 326 34.5
502 393 25.5
503 397 25.5
503 399 25.5
70.1 458 155
378 441.9 245
260 54 40.5
261 50 40.5
270 78 40.5
270 163 59.5
270 165 59.5
329 144 164.5
7 339 134.5
329 249 119.5
87 291 215.5
454 15 90.5
466 58 134.5
305 346 110.5
470 383.1 45
288.9 73 55
4 261.9 165
378 343.9 275
32 309.1 50
362 488 224.5
487 339 49.5
40.9 222 125
58 289 50.5
363 489.1 225
471.1 213 80
59 289.9 50
412.9 338 330
384 459 134.5
384 459 135.5
44 140 170.5
93 428 74.5
182 448 114.5
144 109.9 250
173 70.9 115
31 265 49.5
295.9 31 100
483 349 44.5
303.9 346 120
368 338.9 300
312 488.1 65
340 330.9 75
411 236 119.5
175 102 99.5
205 175.1 290
353 52.9 80
130 248 164.5
145 212 194.5
245 214 279.5
245 215 260.5
245 136 74.5
89 291 190.5
366 277 215.5
428 271 164.5
467 473 174.5
444 226 275.5
30 220.1 50
192 501.9 295
405.1 85 180
33 130 109.5
175 234 279.5
9 224 44.5
10 62 104.5
142 255 325.5
435.9 200 245
86 284 99.5
433 92 90.5
432 9 229.5
436 9 229.5
257.9 254 215
43 328 139.5
141 341 120.5
467 358 114.5
468 359 114.5
400 293.9 215
363 418.9 145
125.9 293 90
95 260.1 50
189 484.1 85
200 251 229.5
98 60.9 220
107.1 224 280
285 304 294.5
370 440 150.5
449 274 219.5
250 345 274.5
439 420 225.5
460 425 59.5
139.1 491 280
503 435.9 35
71 289 80.5
303 250 154.5
495 71 149.5
62 450 89.5
176 257 64.5
428 177 290.5
32 284 215.5
105 68 40.5
111 138 64.5
113 141 64.5
115 144 64.5
117 147 64.5
130 172 35.5
145 84 220.5
159 161 35.5
161 164 35.5
220 229 69.5
221 234 64.5
222 238 40.5
223 230 35.5
227 230 40.5
241 138 74.5
255 167 64.5
397 258 40.5
330 330 174.5
332 312 150.5
372 282 114.5
393 496 80.5
429 369 184.5
450 469 115.5
179 12.9 250
41 35 35.5
107 329 254.5
246 359 64.5
333 181 40.5
461 33 120.5
195 57 330.5
474 178.1 130
476 178.1 130
290 58 60.5
51 104 124.5
125 82.1 125
453 65 144.5
17 489 329.5
78 290 90.5
126 355 15.5
221 256 54.5
225 406 59.5
403 88 185.5
23 293 14.5
63 383 125.5
305 234 85.5
75 323 174.5
87 292 285.5
169 496 124.5
270 330 109.5
287 265 80.5
399 441 110.5
400 448 110.5
416 341 234.5
418 416 210.5
439 430 60.5
466 401 49.5
484 437 49.5
509 471 204.5
403 342 120.5
103 321 260.5
255 442 59.5
90 284 129.5
335 358 185.5
54.1 448 160
284 55.9 60
259.1 66 330
28 503.9 205
137.1 459 295
175 266.9 40
222.9 301 285
59 307 34.5
483 122 85.5
416 104 85.5
9 218 74.5
9 219 74.5
48 460 90.5
477 340 194.5
193 355 114.5
255 245 99.5
282 418 130.5
335 333 69.5
342 442 64.5
469 83 80.5
308 170 49.5
358 409 164.5
218 304.1 330
297 246 279.5
178 440 129.5
430 193.9 285
220 305 294.5
260 261 220.5
296 350 135.5
453 344 239.5
31 487 115.5
185 59 294.5
267 60 64.5
241 440 155.5
281 164 195.5
144 74 285.5
91 12 50.5
342 185 255.5
276 161 40.5
510 207 69.5
291 290 44.5
368 442 150.5
134 439 99.5
98 425 79.5
505 156 79.5
384.1 346 260
55 263 15.5
137.1 432 175
150 186 154.5
306 236 84.5
444 225 275.5
154 325 194.5
234 484 125.5
262 483 179.5
350 117 289.5
379 445 139.5
416 441 124.5
459 383 260.5
475 457 154.5
29 286 215.5
94 432 70.5
139 431 70.5
383 454.9 135
480 291.9 190
413 219 224.5
175.9 231 280
477 444 320.5
36 280.9 15
383.9 345 260
484.1 218 60
181 265.9 105
379 450.9 270
478 452 159.5
286 457.1 65
296 477.1 25
305.1 432 280
505 234.1 330
51 306.9 20
240 393.1 70
240 394.9 70
50.1 306 20
239.1 394 70
240.9 394 70
112.9 223 265
65 298 59.5
163.1 221 180
164 220.1 180
164 221.9 180
164.9 221 180
215.9 67 100
58 455 99.5
418.1 99 325
76 323.9 160
447 338.9 320
370.1 441 150
341 206 85.5
380 113 65.5
417 74 230.5
496 115 290.5
445 224 300.5
286 316 145.5
300 483 25.5
324 293 69.5
334 311 150.5
361 296 104.5
400 292 209.5
470 296 150.5
508 417 30.5
455 122 170.5
2 407 249.5
168 183 64.5
183 206 64.5
213 239 69.5
220 236 64.5
237 193 64.5
178 156 264.5
397 217 260.5
416 102 309.5
150 338 95.5
492 244 284.5
290 40 129.5
295 39 129.5
33 125 109.5
129 22 199.5
161 69 49.5
30 28 90.5
42 37 35.5
45 40 35.5
46 41 35.5
139 40 269.5
138 231 255.5
460 119 139.5
491 38 124.5
3 131 165.5
61 158 94.5
419 292 104.5
464 440 64.5
102 452 14.5
206 397 69.5
218 481 220.5
228 409 59.5
271 98 69.5
105 373 34.5
281 105 124.5
460 217 100.5
474 172 130.5
58 308 34.5
59 453 99.5
260 56 40.5
268 52 40.5
268 56 40.5
203 304 319.5
296 438 30.5
297 439 30.5
298 440 30.5
322 437 150.5
437 431 60.5
470 317 119.5
481 339 64.5
290 439 90.5
463 49.9 295
259 419.1 120
509 400.9 60
68 341 10.5
34.9 482 125
274.9 295 230
207 96.1 185
491 452.1 130
144 450.9 60
478 452.1 160
453 214.9 180
448 452 45.5
231.9 225 145
464.1 420 30
399 377.1 95
107 349.1 165
418 505 254.5
148 507 154.5
397 246 119.5
446 81 130.5
242 238 139.5
33 188 224.5
88 285 210.5
60 207 260.5
135 157 145.5
230 207 64.5
90 291 190.5
390 500 109.5
421 484 174.5
443 437 155.5
450 261 190.5
487 336 34.5
40 474 205.5
36 93 180.5
245 217 249.5
94 346 9.5
102 322 260.5
500 172 209.5
76 324 160.5
138 399 225.5
8 340 119.5
221 278 214.5
300 40 100.5
421 186 285.5
285 346 164.5
382 448 319.5
449 482 120.5
502 406 54.5
502 431.9 35
218 257 40.5
68.9 396 200
205 46 134.5
440 182.9 250
214 254.1 210
9 61 104.5
12 186.9 15
274.9 261 320
449.9 190 210
371 204 109.5
494 118 200.5
74 461 140.5
44 360 119.5
33 279 220.5
394 505 129.5
508.1 111 100
499 478.9 100
502 447 109.5
485 349.9 50
395 291 185.5
90 289.1 155
29 440 285.5
424 464 254.5
208 96 185.5
378 450.9 270
401.9 380 100
189 285 105.5
341 207 85.5
325 293 69.5
333 383 105.5
52.1 304 20
136 459 295.5
93 418 229.5
169 374 294.5
256 58 325.5
442 410.9 230
128 22 199.5
303 443 314.5
202 170 324.5
237 235 124.5
492 38 124.5
508 33 249.5
222 302 285.5
460 59 149.5
69 316 134.5
126 466 105.5
197 283 310.5
242 339 255.5
285 153 270.5
61 105.9 130
34 498 329.5
257 65 329.5
483 170 164.5
339 382 190.5
378 464 135.5
141 485 294.5
402.1 74 55
376.1 448 140
205.9 98 200
504 166.9 200
98 445 14.5
110 300 74.5
117 269 120.5
118 291 145.5
144 373 44.5
144 377 44.5
175 266 190.5
185 268 69.5
213 392 64.5
217 387 64.5
230 481 100.5
269 76 259.5
336 101 119.5
340 207 99.5
387 95 79.5
412 95 235.5
487 173 94.5
510 127 94.5
5 286 9.5
107 318 299.5
213 233 279.5
334 169 275.5
423 165 45.5
276 301 249.5
15 286 14.5
28 197 219.5
30 116 95.5
47 301 5.5
73 60 69.5
264 60 40.5
81 169 75.5
134 165 30.5
181 76 90.5
205 223 35.5
229 163 74.5
235 192 119.5
240 145 89.5
249 169 219.5
29 21 234.5
172 446 164.5
333 170 274.5
411 103 265.5
93 22 74.5
323 65 199.5
266 478 144.5
282 399 319.5
282 433 194.5
298 274 130.5
298 449 59.5
302 476 59.5
306 371 60.5
309 278 310.5
322 503 25.5
328 296 35.5
351 348 204.5
354 394 144.5
359 265 184.5
385 346 135.5
385 399 100.5
385 404 109.5
385 409 95.5
391 431 229.5
394 395 220.5
415 443 100.5
417 443 124.5
430 346 179.5
447 465 330.5
455 298 145.5
472 435 30.5
481 394 59.5
491 457 120.5
501 487 199.5
256 299 125.5
9 257 85.5
262 26 134.5
368 56 234.5
440 49 119.5
398 80 55.5
105 350 155.5
132 323 70.5
139 347 129.5
151 383 44.5
177 478 144.5
271 90 40.5
282 93 239.5
332 119 294.5
349 219 329.5
356 93 149.5
377 77 114.5
383 176 269.5
453 161 115.5
459 162 120.5
466 65 60.5
502 111 100.5
467 56 135.5
275 298 230.5
234 271.9 165
139 307.1 140
199.1 343 140
72.9 318 145
166 110.9 170
168 109.9 170
122 303 95.5
436 5.9 230
27 171 139.5
32 452 230.5
111 359 314.5
74 460 154.5
141 335 139.5
57 398 134.5
269 55 64.5
270 54 64.5
321 292 50.5
501 337 54.5
175 267.1 40
396 359.1 80
417 75 230.5
496 114 290.5
281 307 294.5
469 296 150.5
137 459 294.5
397 273.1 335
459 58.9 150
468 49.1 265
300 251 235.5
472 173 130.5
191 290 64.5
191 289 64.5
375 449 294.5
238.9 145 90
63.9 348 235
147 447 74.5
102 23 50.5
140 93 264.5
428 271.1 245
10 59.9 105
406 244 189.5
62 158 94.5
137 231 255.5
249 345 274.5
377 502.9 205
385 344.9 135
419.1 317 90
425 449.1 255
283 309 294.5
357.1 93 150
302.1 165 95
482.1 217 55
270 298 284.5
272 326 114.5
280 503 250.5
358 354 329.5
363 394 64.5
406 444 105.5
414 505 60.5
431 456 99.5
444 501 115.5
462 335 159.5
510 431 259.5
42 492.9 330
48 266 19.5
78 482 55.5
86 296 64.5
93 312 15.5
94 362 34.5
116 367 39.5
125 418 124.5
128 308 79.5
130 462 19.5
140 429 120.5
141 437 84.5
146 330 135.5
146 489 64.5
148 266 25.5
159 402 109.5
174 381 49.5
187 272 69.5
196 304 30.5
206 354 85.5
210 343 30.5
217 479 220.5
219 391 64.5
221 330 135.5
223 258 54.5
240 506 80.5
255 380 64.5
263 93 74.5
266 168 59.5
268 83 79.5
271 82 240.5
271 92 74.5
291 236 214.5
300 197 244.5
302 239 164.5
321 201 320.5
322 179 140.5
382 195 40.5
421 170 320.5
433 208 200.5
474 201 134.5
476 198 134.5
488 118 109.5
189 453 109.5
251 226.1 305
305 257 149.5
385 108 60.5
498 114 290.5
5 270 70.5
10 343 24.5
31 262 49.5
392 14 254.5
418 62 240.5
461 11 109.5
467 11 109.5
4 63 40.5
18 335 80.5
36 223 294.5
75 56 69.5
86 46 69.5
89 14 50.5
175 5 59.5
192 39 59.5
228 226 145.5
20 332 99.5
36 395 80.5
46 382 179.5
86 176 70.5
86 241 20.5
87 95 35.5
103 120 35.5
103 195 109.5
107 212 84.5
109 325 114.5
129 155 314.5
143 172 69.5
144 141 35.5
144 187 144.5
144 304 135.5
153 169 169.5
154 165 30.5
155 212 64.5
158 177 150.5
158 209 279.5
159 218 259.5
160 221 30.5
161 93 124.5
164 177 64.5
167 78 129.5
167 95 64.5
167 229 69.5
173 243 69.5
175 99 199.5
176 466 125.5
178 252 69.5
180 81 99.5
184 215 69.5
188 73 50.5
190 218 30.5
191 78 220.5
196 228 30.5
201 237 30.5
208 205 35.5
209 244 69.5
210 210 69.5
221 228 305.5
221.9 277 215
224 254 35.5
228 220 35.5
230 169 74.5
232 171 74.5
232 200 64.5
234 233 130.5
237 138 69.5
239 171 74.5
241 207 215.5
241 238 115.5
244 123 40.5
248 103 40.5
248 153 74.5
248 199 220.5
249 181 229.5
250 111 145.5
274 247 35.5
281 46 70.5
285 61 55.5
290 52 65.5
303 207 250.5
333 122 255.5
350 167 164.5
366 51 50.5
384 43 239.5
425 229 105.5
505 47 234.5
505 54 224.5
17 57 100.5
62 156 94.5
64 69 235.5
173 69 129.5
205 302 320.5
19 8 54.5
24 47 80.5
29 15 59.5
31 19 59.5
99 231 60.5
143 115 249.5
27 171 120.5
31 138 114.5
32 223 134.5
40 162 149.5
68 52 30.5
77 54 69.5
87 55 30.5
87 279 199.5
103 43 104.5
139 47 245.5
172 34 300.5
173 38 40.5
178 48 280.5
230 226 145.5
247 136 75.5
27 477 205.5
352 49 99.5
330 466 219.5
420 185 284.5
262 390 104.5
262 395 64.5
267 449 59.5
270 372 184.5
271 377 179.5
272 360 170.5
274 362 170.5
275 388 145.5
288 275 135.5
289 461 59.5
292 486 59.5
293 495 59.5
299 442 30.5
299 499 25.5
301 271 130.5
303 347 149.5
304 312 220.5
304 485 64.5
306 478 59.5
307 403 230.5
308 440 299.5
309 489 25.5
313 481 59.5
319 497 25.5
326 492 59.5
334 301 325.5
338 508 59.5
339 446 64.5
346 470 175.5
349 492 220.5
357 440 160.5
366 441 114.5
367 424 139.5
376 470 149.5
378 439 105.5
378 472 149.5
387 457 125.5
398 446 110.5
402 297 65.5
408 348 110.5
409 441 105.5
410 352 124.5
412 486 99.5
413 366 310.5
422 441 119.5
435 417 135.5
437 302 135.5
440 376 89.5
441 387 150.5
441 449 119.5
449 297 164.5
450 478 134.5
450 483 129.5
454 277 70.5
456 447 35.5
458 282 65.5
463 392 30.5
463 431 30.5
466 434 30.5
471 380 44.5
471 391 100.5
474 355 25.5
475 383 49.5
476 433 30.5
479 340 64.5
479 358 25.5
481 343 59.5
482 401 59.5
484 430 54.5
485 404 59.5
487 342 54.5
487 427 30.5
491 381 25.5
493 404 59.5
495 379 64.5
495 386 25.5
495 504 165.5
497 362 64.5
497 381 220.5
499 417 30.5
500 490 170.5
501 352 64.5
502 316 34.5
506 387 64.5
4 326 24.5
5 333 29.5
12 338 89.5
31 504 119.5
37 340 24.5
37 488 105.5
46 357 24.5
48 370 174.5
51 360 164.5
51 433 9.5
55 424 9.5
58 276 65.5
62 356 29.5
248 255 144.5
255 71 40.5
274 60 94.5
294 50 70.5
365 23 104.5
73 362 29.5
109 384 294.5
112 455 130.5
118 369 39.5
173 258 195.5
176 373 49.5
178 444 80.5
181 420 125.5
194 365 109.5
194 377 89.5
198 371 55.5
198 391 79.5
200 347 85.5
200 396 74.5
204 397 25.5
206 401 64.5
221 378 239.5
222 371 274.5
223 383 229.5
229 398 64.5
237 344 30.5
246 260 185.5
247 496 304.5
259 89 74.5
264 109 40.5
282 74 45.5
321 172 135.5
338 71 215.5
339 221 305.5
358 182 240.5
366 148 90.5
368 219 280.5
372 212 309.5
384 197 40.5
406 87 194.5
413 179 284.5
439 89 100.5
468 139 79.5
486 99 329.5
497 201 74.5
240 266 189.5
92 286.1 130
470.9 199 115
36 451.9 235
40 484 125.5
401.1 345 120
82 243 310.5
407 78 55.5
209 169.9 195
174 64 174.5
67.9 232 85
125 134.1 35
244 263.1 180
463 33 119.5
172 444 165.5
269 431 270.5
373 64 314.5
497 169 209.5
511 111 104.5
511 111 105.5
407 343.9 120
169.9 288 60
214.1 281 125
310 99.1 270
425.1 190 275
64 299 59.5
2 133 210.5
4 4 164.5
4 8 154.5
4 131 190.5
5 131 189.5
6 137 190.5
7 456 90.5
9 229 100.5
10 133 209.5
10 325 234.5
12 233 100.5
14 155 279.5
17 335 270.5
19 328 250.5
19 332 270.5
25 169 164.5
32 212 324.5
34 87 200.5
34 207 324.5
37 44 134.5
39 90 200.5
41 197 80.5
41 198 80.5
45 388 44.5
45 459 90.5
47 358 120.5
58 316 139.5
59 315 140.5
65 221 94.5
68 212 49.5
69 210 49.5
69 240 95.5
73 77 35.5
81 86 35.5
82 87 35.5
86 125 124.5
89 124 125.5
100 64 35.5
100 511 135.5
112 81 35.5
113 83 35.5
114 85 35.5
114 352 10.5
118 353 10.5
121 354 9.5
125 149 30.5
126 150 30.5
127 367 10.5
127 373 160.5
127 374 169.5
128 366 10.5
131 155 30.5
131 333 70.5
132 331 70.5
142 143 29.5
144 171 25.5
146 168 24.5
146 175 25.5
147 152 30.5
156 173 25.5
160 81 49.5
160 469 314.5
161 444 84.5
162 69 34.5
162 88 35.5
162 443 84.5
163 482 279.5
165 201 69.5
167 204 69.5
182 243 74.5
184 240 74.5
184 452 89.5
187 68 35.5
194 356 114.5
195 357 114.5
198 504 34.5
222 141 99.5
222 141 100.5
229 292 75.5
229 294 74.5
232 291 75.5
233 295 74.5
236 161 80.5
236 163 80.5
243 98 215.5
243 99 214.5
243 99 215.5
249 110 155.5
250 109 155.5
251 131 74.5
252 130 74.5
253 137 74.5
254 130 74.5
255 131 75.5
271 320 105.5
275 331 84.5
276 114 84.5
320 507 190.5
340 442 64.5
361 3 155.5
362 1 155.5
374 429 115.5
380 384 45.5
383 61 110.5
400 313 65.5
421 101 85.5
422 102 84.5
423 37 309.5
444 228 100.5
446 323 75.5
449 431 39.5
464 34 119.5
469 17 75.5
470 334 70.5
475 331 69.5
476 332 69.5
494 425 29.5
496 374 69.5
498 374 69.5
502 112 310.5
512 108 105.5
177 440 129.5
55.1 95 95
339.9 407 130
418.1 353 125
501 473.1 105
220 264 40.5
455.9 28 235
471.1 382 45
101 292 149.5
188 455 109.5
311 99 269.5
382 108 74.5
502 191 45.5
56 350 29.5
384 37 244.5
257 352 234.5
288 353 159.5
330 343 189.5
391 340 130.5
430 298 109.5
509 171 195.5
486 71 199.5
79.9 179 265
31 284 214.5
200 52 195.5
114 223 264.5
192 66 289.5
239 66 329.5
57 53 329.5
217.1 144 330
222 277 214.5
4 133 239.5
173.1 464 125
227 224 155.5
91 85 229.5
172 265 35.5
203 365 65.5
220 270 219.5
235 312 35.5
479 197 80.5
32 95 69.5
55 94 95.5
287 346 165.5
343 434 90.5
164 501 35.5
259 68 329.5
20 280 134.5
66 437 9.5
109 383 280.5
135 432 194.5
136 350 60.5
159 274 210.5
168 453 174.5
357 245 170.5
464 426.9 30
274 501 134.5
256 508 240.5
378 465.1 135
186 487.1 85
217 312.9 255
474 314.9 115
384.1 459 135
223 309.1 195
405.9 244 190
116 412 129.5
77.9 409 40
454.9 350 235
363 282 189.5
305 485 64.5
359 480 214.5
363 282 190.5
221 303.9 285
190.9 44 40
359 411.9 155
41 485.1 125
354 199.1 155
196 27 59.5
184 226 279.5
193 92 229.5
339 333.9 85
27 476 205.5
342 124 79.5
63 465 85.5
297 489 25.5
379 303 320.5
442 411 229.5
30 192 224.5
395 76 55.5
456 260 190.5
25 437.1 300
29 280.9 185
264 332 85.5
500 479 100.5
84 255.9 240
174.9 267 40
485 352.9 50
328 137 155.5
66 291 94.5
72 292 109.5
76 297 45.5
111 338 100.5
115 366 39.5
126 306 65.5
129 463 19.5
140 370 15.5
142 436 84.5
142 465 5.5
149 267 25.5
149 267 34.5
149 269 25.5
150 491 59.5
157 443 60.5
160 266 39.5
166 265 44.5
167 273 214.5
168 446 99.5
169 384 20.5
171 443 75.5
172 264 35.5
173 380 49.5
181 259 69.5
188 277 30.5
191 286 30.5
192 300 69.5
193 294 30.5
195 303 30.5
197 309 30.5
198 313 30.5
208 334 64.5
209 260 69.5
209 267 69.5
211 347 30.5
211 381 64.5
212 339 110.5
212 345 64.5
212 387 64.5
213 351 64.5
214 357 64.5
215 276 64.5
216 478 220.5
218 291 30.5
219 372 64.5
222 331 135.5
223 258 35.5
224 259 54.5
232 321 30.5
232 325 30.5
248 362 30.5
253 376 30.5
261 196 240.5
264 94 74.5
265 169 59.5
267 94 74.5
269 84 79.5
272 84 79.5
276 77 84.5
277 70 45.5
278 73 89.5
278 82 79.5
279 77 84.5
281 104 109.5
291 236 195.5
295 182 40.5
298 96 195.5
301 222 240.5
301 236 230.5
303 236 230.5
320 153 270.5
328 119 95.5
335 183 100.5
339 212 94.5
347 133 320.5
388 92 70.5
391 218 114.5
393 137 249.5
396 233 40.5
399 177 240.5
403 251 194.5
407 240 189.5
415 191 54.5
419 191 90.5
426 99 85.5
446 234 109.5
456 241 195.5
459 152 50.5
461 152 69.5
466 154 130.5
468 143 60.5
474 188 125.5
475 199 134.5
476 130 75.5
484 216 259.5
496 193 69.5
201.1 53 195
31 218 305.5
40 195 219.5
81 243 45.5
81 244 309.5
87 96 35.5
125 75 329.5
130 249 164.5
152 149 35.5
158 211 255.5
166 234 30.5
167 230 69.5
172 118 149.5
209 210 69.5
209 245 69.5
227 127 219.5
243 200 244.5
252 112 145.5
507 68.9 225
4 246 109.5
6 246 109.5
9 249 90.5
11 342 24.5
13 338 65.5
13 342 65.5
28 107 145.5
28 108 164.5
42 122 195.5
47 143 160.5
61 249 75.5
85 47 69.5
138 22 194.5
164 61 59.5
173 9 59.5
184 225.9 280
190 49 59.5
191 45 59.5
192 57 40.5
193 53 40.5
339 13 294.5
358 13 100.5
391 15 254.5
395 17 225.5
408 8 120.5
465 13 70.5
466 10 109.5
65 184 190.5
68 154 150.5
70 97 145.5
74 66 69.5
85 184 74.5
87 172 120.5
87 175 70.5
87 242 20.5
101 197 140.5
102 204 130.5
103 220 65.5
107 96 30.5
107 127 35.5
111 197 114.5
111 199 114.5
116 138 69.5
118 142 35.5
123 195 105.5
127 107 35.5
132 152 285.5
133 127 35.5
139 159 25.5
140 122 254.5
140 138 69.5
141 142 69.5
143 140 35.5
143 159 25.5
143 186 144.5
143 190 64.5
144 173 69.5
145 121 220.5
148 72 230.5
148 82 220.5
148 173 69.5
151 156 69.5
152 166 69.5
152 168 69.5
154 183 140.5
157 176 150.5
165 219 69.5
166 79 129.5
167 130 94.5
168 120 149.5
168 215 69.5
171 93 64.5
171 129 75.5
171 214 69.5
171 239 270.5
176 98 85.5
177 97 69.5
179 93 64.5
180 213 69.5
183 117 119.5
184 67 289.5
187 77 264.5
190 118 100.5
195 97 185.5
199 232 30.5
202 194 244.5
205 123 114.5
206 210 35.5
206 216 35.5
207 253 69.5
214 208 69.5
217 208 69.5
223 180 69.5
223 255 35.5
224 216 69.5
227 185 69.5
228 256 49.5
229 166 74.5
229 168 74.5
230 216 35.5
231 211 35.5
233 172 74.5
234 158 79.5
235 185 69.5
236 158 79.5
237 192 35.5
238 133 69.5
238 172 74.5
239 127 69.5
239 155 79.5
239 164 35.5
240 185 35.5
241 170 35.5
241 176 35.5
245 122 40.5
247 104 40.5
248 161 74.5
248 241 119.5
249 154 74.5
249 157 74.5
250 97 69.5
250 106 165.5
250 122 40.5
251 90 69.5
251 166 40.5
252 82 40.5
252 85 40.5
252 93 40.5
253 163 40.5
253 165 40.5
254 161 69.5
255 115 40.5
255 157 69.5
256 128 40.5
257 136 40.5
24 457 55.5
26 482 94.5
31 345 24.5
31 347 24.5
47 381 179.5
50 324 135.5
277 51 65.5
279 58 55.5
280 53 104.5
282 45 70.5
282 60 99.5
285 37 80.5
285 47 119.5
286 41 129.5
288 45 70.5
290 53 104.5
324 57 195.5
386 41 210.5
426 24 315.5
462 36 125.5
504 48 234.5
27 170 120.5
31 20 59.5
47 42 35.5
55 10 35.5
116.9 79 125
171 34 300.5
5 175 119.5
9 98 69.5
10 219 55.5
13 177 105.5
18 58 100.5
18 174 110.5
92 11 50.5
95 9 79.5
3 65 49.5
18 7 54.5
27 41 85.5
47 25 64.5
49 31 64.5
50 61 240.5
51 19 64.5
55 19 64.5
99 442 14.5
127 269 134.5
164 468 155.5
186 273 30.5
220 370 274.5
230 316 64.5
235.1 65 330
275 90 74.5
298 181 40.5
431 206 234.5
464 62 60.5
24 201 180.5
32 135 114.5
32 137 114.5
36 104 109.5
53 220 140.5
53 222 140.5
59 156 145.5
69 51 30.5
75 51 30.5
79 52 30.5
83 53 30.5
102 44 104.5
177 36 40.5
180 36 40.5
181 53 270.5
252 55 334.5
413 487.9 175
5 271 70.5
21 292 14.5
393 14 254.5
460 11 109.5
45 297 5.5
256 504 240.5
254 72 40.5
269.1 58 65
125 468 105.5
147 381 44.5
201 396 74.5
300 165 194.5
339 222 305.5
451 13 95.5
45 329 139.5
191 364 109.5
267 48 40.5
485 58 65.5
111 449 139.5
257 415 64.5
261 261 220.5
262 384 90.5
263 382 99.5
263 385 90.5
264 402 64.5
264 406 64.5
270 310 99.5
271 289 210.5
275 397 154.5
276 387 145.5
276 394 140.5
278 408 139.5
282 422 209.5
284 398 319.5
285 262 75.5
285 429 180.5
287 276 135.5
290 312 245.5
291 487 59.5
291 491 59.5
295 455 59.5
296 278 149.5
297 445 59.5
297 492 25.5
298 498 25.5
305 349 110.5
305 487 25.5
306 407 244.5
308 311 69.5
308 408 225.5
309 498 64.5
309 500 64.5
310 505 64.5
311 459 30.5
317 296 44.5
326 506 64.5
326 508 64.5
327 454 125.5
328 278 310.5
329 460 115.5
332 433 85.5
333 301 325.5
335 302 160.5
335 365 190.5
335 372 195.5
348 493 220.5
355 350 175.5
356 262 79.5
369 384 39.5
370 283 114.5
371 282 100.5
371 291 135.5
372 431 100.5
373 276 105.5
376 261 80.5
376 452 295.5
382 384 110.5
383 435 129.5
384 455 125.5
385 458 144.5
388 458 125.5
390 362 44.5
392 370 54.5
394 424 215.5
397 340 139.5
397 374 89.5
398 447 110.5
402 502 125.5
403 316 145.5
404 349 134.5
405 277 49.5
405 313 164.5
405 445 129.5
405 447 129.5
406 314 49.5
407 347 110.5
409 440 105.5
410 290 94.5
411 384 290.5
413 487 99.5
414 357 214.5
416 272 140.5
417 476 80.5
420 362 199.5
423 442 119.5
423 444 119.5
428 267 160.5
430 365 155.5
431 305 135.5
432 292 139.5
435 365 79.5
436 416 135.5
438 301 135.5
439 266 120.5
440 398 169.5
440 450 119.5
442 439 45.5
448 401 225.5
448 472 115.5
449 483 129.5
450 397 235.5
450 472 129.5
454 418 44.5
455 447 35.5
456 385 39.5
456 407 35.5
456 445 84.5
458 429 64.5
462 322 135.5
462 391 30.5
462 430 30.5
464 396 30.5
464 411 30.5
465 407 30.5
465 413 54.5
466 346 135.5
467 357 35.5
467 407 54.5
467 424 59.5
467 435 30.5
469 391 114.5
469 435 30.5
470 392 100.5
472 315 105.5
473 265 69.5
473 320 109.5
473 330 320.5
474 335 315.5
474 353 44.5
474 355 44.5
476 432 59.5
476 436 59.5
477 371 44.5
479 349 44.5
479 365 44.5
479 384 99.5
479 432 30.5
480 327 65.5
481 398 59.5
481 400 59.5
484 361 49.5
486 405 59.5
486 428 30.5
487 309 120.5
489 456 134.5
492 362 270.5
492 405 59.5
494 371 64.5
494 378 64.5
496 363 64.5
496 503 165.5
499 356 64.5
499 490 170.5
501 317 34.5
501 486 70.5
501 489 170.5
502 347 64.5
502 405 25.5
502 477 204.5
503 342 64.5
505 477 204.5
507 388 64.5
507 465 214.5
507 479 175.5
508 410 70.5
509 388 64.5
509 403 154.5
509 471 180.5
3 325 24.5
4 332 29.5
5 347 59.5
9 281 9.5
9 347 85.5
11 347 85.5
13 357 145.5
16 332 19.5
18 333 240.5
19 469 80.5
31 408 175.5
31 480 99.5
33 273 235.5
36 487 105.5
38 339 24.5
42 356 24.5
44 424 9.5
48 433 9.5
50 370 150.5
52 424 9.5
52 434 9.5
56 423 9.5
58 259 70.5
59 346 29.5
62 414 204.5
63 357 29.5
274 31 120.5
377 44 110.5
386 29 89.5
397 9 249.5
430 17 195.5
73 322 120.5
78 464 130.5
94 467 270.5
101 375 114.5
104 352 34.5
105 439 14.5
108 439 14.5
111 388 270.5
114 267 85.5
121 358 39.5
126 475 129.5
131 312 79.5
132 358 39.5
140 332 125.5
140 364 55.5
140 436 60.5
140 468 50.5
143 482 59.5
152 368 44.5
157 385 44.5
164 377 179.5
166 387 20.5
177 372 49.5
180 428 120.5
181 435 115.5
195 366 60.5
195 366 109.5
195 378 89.5
197 338 100.5
197 361 65.5
197 370 55.5
197 378 89.5
197 392 79.5
198 399 25.5
199 346 85.5
199 366 60.5
203 398 25.5
209 324 135.5
210 296 69.5
213 307 69.5
213 324 135.5
217 306 69.5
222 409 110.5
226 261 35.5
230 373 275.5
235 268 160.5
250 415 64.5
256 346 220.5
258 88 74.5
259 161 64.5
263 78 79.5
268 67 84.5
269 71 84.5
270 100 40.5
282 173 59.5
284 78 45.5
309 168 135.5
345 93 120.5
353 183 245.5
354 92 130.5
357 221 295.5
370 177 269.5
373 236 184.5
384 216 265.5
420 74 64.5
462 214 100.5
467 149 55.5
482 169 80.5
497 81 104.5
498 202 74.5
307 509.9 25
31 487.1 115
331.1 247 120
348 394.9 170
502.1 447 110
107.9 198 95
401 294 215.5
312 488 64.5
189.1 374 90
107 317.9 320
452 427.9 40
325.9 63 200
204 454 119.5
233 508 75.5
275 106 139.5
505 130 165.5
467 47.1 275
355 261 79.5
68 456 154.5
260 67 329.5
164.1 117 50
240 212 305.5
332 373 224.5
379 263 110.5
426 472 235.5
469 218 144.5
29 403 194.5
394 43 120.5
97 231 60.5
210 250 210.5
205 490 49.5
246 353 144.5
410 180 245.5
314 511 64.5
166 445 70.5
71 319 134.5
85 286 100.5
56 400 135.5
163 120 80.5
190 71 49.5
107 318 319.5
278 260 90.5
282 398 280.5
299 345 114.5
399 293 210.5
38.9 455 240
43 241 210.5
90 241 55.5
80 244 310.5
186 7 325.5
66 104 149.5
240.1 455 250
65 343 275.5
294 340 109.5
303 484 64.5
463 419 30.5
467 419 25.5
263 115 69.5
497 214 74.5
62 450.1 90
468 202.1 115
3 233.1 100
377 314 275.5
382 449.9 250
440.1 158 120
438.1 430 70
322 161.9 280
315 429 209.5
237 241 139.5
65 234 85.5
371 446 154.5
383 396 114.5
99.9 319 300
411 508.9 225
482.9 168 165
297.9 247 235
432.1 201 225
23 386.1 65
308 482.1 65
415 190.1 160
155 506 169.5
451 434 39.5
495 390 214.5
435 18 230.5
477 217 120.5
21 338 299.5
35 482 125.5
200 172 324.5
386 77 109.5
14 220 49.5
64 428 315.5
100 319 299.5
212 341 160.5
286 168 59.5
23 126 124.5
26 123 130.5
113 223 264.5
402 74.1 55
476.9 340 195
299 341 109.5
489 339 49.5
508 434 35.5
366 323 299.5
25 286 189.5
71 459 155.5
170 496 124.5
304 473 155.5
419 422 269.5
476 315 115.5
384 395.1 115
94 421 289.5
146 507 154.5
482.1 388 60
296 14.1 150
165 235 210.5
224 303 285.5
10 220 74.5
343 443 64.5
25 451.9 310
223 314.9 315
473 384.9 140
499 109 100.5
402 124 84.5
495 329 34.5
414.9 218 225
259 153 45.5
217 144 329.5
55.1 50 330
187.9 117 100
204 262 245.5
450 260.9 190
396 255 240.5
305 486 64.5
384 440 110.5
413 488 174.5
269 58 64.5
456 217 100.5
184 67 59.5
49 216 184.5
278 57 99.5
273 301 240.5
311 502 64.5
49 277 124.5
105 321 259.5
402.9 216 250
57 201 249.5
92 132 105.5
294 187 74.5
297 236 285.5
506 173 194.5
509 210 259.5
3 238 114.5
4 238 114.5
5 238 114.5
6 252 104.5
67 184 190.5
72 290 109.5
74 64 69.5
94 59 69.5
94 60 69.5
101 96 30.5
102 96 30.5
103 96 30.5
104 96 30.5
105 96 30.5
115 364 39.5
118 144 35.5
118 145 35.5
118 146 35.5
129 465 19.5
136 170 30.5
136 171 30.5
136 172 30.5
141 140 35.5
141 159 25.5
142 467 5.5
144 117 249.5
146 173 69.5
150 82 220.5
151 82 220.5
151 158 69.5
151 159 69.5
151 160 69.5
151 161 69.5
151 162 69.5
152 82 220.5
160 264 39.5
166 45 59.5
166 46 59.5
166 47 59.5
166 263 44.5
170 239 30.5
173 93 64.5
173 97 69.5
174 93 64.5
174 97 69.5
175 93 64.5
175 97 69.5
176 93 64.5
177 93 64.5
183 384 54.5
183 385 54.5
189 53 59.5
191 43 59.5
193 49 40.5
193 50 40.5
193 51 40.5
193 292 30.5
195 301 30.5
197 224 69.5
202 197 215.5
206 101 195.5
206 212 35.5
206 213 35.5
206 214 35.5
209 262 69.5
209 263 69.5
209 264 69.5
209 265 69.5
210 259 30.5
210 260 30.5
210 272 30.5
210 273 30.5
210 274 30.5
211 383 64.5
211 388 25.5
211 389 25.5
211 390 25.5
211 391 25.5
211 392 25.5
212 351 30.5
212 352 30.5
212 353 30.5
212 354 30.5
213 349 64.5
214 355 64.5
216 260 64.5
216 261 64.5
218 375 30.5
218 376 30.5
218 377 30.5
220 376 64.5
220 377 64.5
222 333 135.5
224 218 69.5
224 219 69.5
228 258 49.5
229 185 69.5
230 185 69.5
231 185 69.5
232 185 69.5
232 323 30.5
233 185 69.5
234 255 44.5
234 256 44.5
235 172 74.5
236 172 74.5
239 129 69.5
240 121 69.5
240 122 69.5
240 123 69.5
240 180 35.5
240 181 35.5
240 182 35.5
240 183 35.5
241 172 35.5
241 173 35.5
241 174 35.5
247 106 40.5
247 122 40.5
248 122 40.5
251 92 69.5
251 93 69.5
251 164 40.5
253 89 40.5
255 135 69.5
255 136 69.5
255 154 69.5
255 155 69.5
256 130 40.5
256 131 40.5
256 132 40.5
257 138 40.5
257 139 40.5
257 140 40.5
257 141 40.5
257 142 40.5
257 143 40.5
263 157 40.5
263 169 59.5
264 157 40.5
274 72 195.5
275 72 195.5
300 96 195.5
384 99 65.5
408 232 199.5
456 220 185.5
5 349 95.5
18 486 320.5
11 336 24.5
11 337 24.5
11 338 24.5
11 339 24.5
11 340 24.5
13 340 65.5
91 9 79.5
92 9 79.5
93 9 79.5
246 89 99.5
335 126 94.5
3 11 280.5
6 339 150.5
30 3 64.5
31 3 64.5
32 3 64.5
33 3 64.5
34 3 64.5
186 94 50.5
421 276 259.5
29 280 219.5
53 19 64.5
71 51 30.5
72 51 30.5
73 51 30.5
282 53 104.5
283 53 104.5
284 45 70.5
284 53 104.5
284 60 99.5
285 45 70.5
285 53 104.5
285 60 99.5
286 45 70.5
286 53 104.5
286 60 99.5
287 53 104.5
288 41 129.5
288 53 104.5
467 44 135.5
433 195 279.5
105 453 280.5
197 168.9 100
20 333 19.5
21 333 19.5
30 474 229.5
31 499 80.5
34 487 105.5
36 484 114.5
40 425 9.5
44 433 9.5
45 433 9.5
46 424 9.5
46 433 9.5
47 424 9.5
48 424 9.5
49 424 9.5
50 339 24.5
50 424 9.5
58 423 9.5
59 423 9.5
60 423 9.5
61 346 29.5
61 423 9.5
62 346 29.5
63 346 29.5
64 346 29.5
65 346 29.5
66 346 29.5
67 346 29.5
68 346 29.5
69 346 29.5
70 346 29.5
71 346 29.5
72 346 29.5
106 295 69.5
106 352 34.5
107 295 69.5
123 262 125.5
123 358 39.5
124 358 39.5
125 358 39.5
126 358 39.5
127 358 39.5
128 358 39.5
129 358 39.5
130 358 39.5
134 377 15.5
143 493 55.5
154 368 44.5
155 368 44.5
156 368 44.5
157 368 44.5
158 368 44.5
162 263 30.5
163 263 30.5
164 387 20.5
193 370 104.5
194 370 104.5
195 370 104.5
196 346 85.5
196 370 104.5
197 346 85.5
197 366 60.5
199 338 100.5
200 338 100.5
205 307 69.5
206 307 69.5
207 307 69.5
208 307 69.5
209 307 69.5
210 307 69.5
211 307 69.5
211 324 135.5
212 296 69.5
213 296 69.5
214 296 69.5
252 415 64.5
253 415 64.5
254 415 64.5
255 415 64.5
263 74 79.5
263 75 79.5
263 76 79.5
263 398 64.5
264 404 64.5
270 82 40.5
270 83 40.5
270 84 40.5
270 85 40.5
270 86 40.5
270 94 40.5
270 95 40.5
270 96 40.5
270 97 40.5
270 98 40.5
278 105 120.5
282 3 59.5
282 4 59.5
284 80 45.5
284 81 45.5
291 489 59.5
298 496 25.5
309 170 135.5
337 330 89.5
338 330 89.5
339 330 89.5
340 330 89.5
345 91 120.5
354 94 130.5
360 256 74.5
371 428 109.5
372 428 109.5
374 388 39.5
386 311 155.5
393 453 134.5
396 370 84.5
405 347 110.5
406 234 165.5
406 282 49.5
416 193 140.5
425 440 95.5
425 441 95.5
425 442 95.5
425 443 95.5
428 272 164.5
440 405 159.5
442 441 45.5
442 442 45.5
442 443 45.5
446 443 40.5
448 429 39.5
454 420 44.5
454 421 44.5
454 422 44.5
456 399 35.5
456 400 35.5
456 401 35.5
456 402 35.5
456 403 35.5
456 404 35.5
456 405 35.5
460 325 164.5
462 380 30.5
462 381 30.5
462 382 30.5
462 383 30.5
462 384 30.5
462 385 30.5
462 386 30.5
462 387 30.5
462 388 30.5
462 389 30.5
465 400 30.5
465 442 64.5
465 443 64.5
465 444 64.5
467 359 35.5
467 360 35.5
467 361 35.5
467 362 35.5
467 363 35.5
467 364 35.5
467 365 35.5
475 330 320.5
476 434 59.5
477 65 204.5
482 208 50.5
488 405 59.5
488 421 54.5
489 368 25.5
489 405 59.5
490 405 59.5
494 373 64.5
494 374 64.5
494 375 64.5
494 376 64.5
497 403 59.5
498 204 74.5
498 403 59.5
502 403 25.5
504 421 44.5
508 465 310.5
240 264.9 190
506 434 35.5
143 445.9 75
284 307 294.5
31 453 230.5
69 103 159.5
77 105 265.5
167 343 139.5
343 86 109.5
359 222 304.5
28 506 109.5
48 457 90.5
56 262 14.5
34 395 94.5
416 199 79.5
418 486 174.5
498 326 40.5
495.9 213 75
31 453.1 230
141 484.9 275
477 181 130.5
433 19 230.5
108 219.9 305
189 75.1 230
220 305 295.5
298 341 109.5
377 303 320.5
488 339 49.5
507 434 35.5
454 212 214.5
35 451 239.5
186 265 69.5
511 197 45.5
133 438 99.5
298 31 100.5
263 334 85.5
309 370 69.5
309 372 69.5
489 379 25.5
495 340 54.5
501 332 49.5
494 342.1 55
258 114 40.5
472 200 134.5
99 423 270.5
159 435 234.5
207 283 119.5
335 100 119.5
66 290 94.5
352 42 79.5
164 62 59.5
301 15 159.5
463 42 149.5
67 105 149.5
84 170 75.5
85 48 69.5
86 87 69.5
93 96 30.5
105 124 35.5
116 137 69.5
127 108 35.5
140 139 69.5
141 143 69.5
143 189 64.5
147 202 30.5
150 184 164.5
156 102 145.5
172 246 30.5
179 265 64.5
190 48 59.5
190 287 64.5
191 285 30.5
192 56 40.5
197 22 59.5
198 312 30.5
202 323 30.5
211 346 30.5
212 344 64.5
215 277 64.5
218 292 30.5
219 371 64.5
226 158 69.5
237 191 35.5
248 160 74.5
248 363 30.5
250 98 69.5
253 377 30.5
254 73 40.5
254 160 69.5
260 196 240.5
276 70 45.5
277 82 79.5
326 222 264.5
507 136 155.5
12 166 34.5
288 266 94.5
309 300 325.5
321 459 250.5
343 285 45.5
354 343 264.5
381 450 250.5
390 430 229.5
392 439 224.5
395 503 129.5
420 505 255.5
436 300 154.5
442 384 109.5
448 464 330.5
467 318 125.5
473 266 60.5
500 485 69.5
17 51 84.5
19 456 59.5
175 177 289.5
189 153 154.5
238 66 330.5
49 30 64.5
78 52 30.5
82 53 30.5
253 56 325.5
278 51 65.5
461 36 125.5
19 248 324.5
35 485 115.5
41 316 255.5
165 276 214.5
207 254 69.5
337 249 165.5
505 57 329.5
499 115 309.5
119 323 320.5
367 55 234.5
128 360 189.5
150 400 124.5
168 369 204.5
320 202 320.5
357 92 149.5
459 171 89.5
64 357 29.5
7 394 290.5
9 348 19.5
39 339 24.5
43 356 24.5
54 434 9.5
65 429 314.5
102 440 14.5
135 359 39.5
191 376 89.5
216 306 69.5
269 70 84.5
284 348 155.5
284 461 59.5
297 446 59.5
314 288 60.5
326 299 35.5
357 421 230.5
420 293 90.5
456 386 39.5
456 444 84.5
458 448 35.5
464 395 30.5
465 408 30.5
465 414 54.5
466 424 59.5
467 408 54.5
473 174 144.5
27 287 189.5
27 287 190.5
139 280 214.5
257 346 220.5
304.9 393 260
436 196 279.5
63 307 34.5
305.1 485 65
340 384 190.5
414 416 294.5
423 465 254.5
282 165 40.5
125 291 90.5
81.1 189 55
129.9 118 35
511 68.9 225
59.1 307 35
263 157.1 60
305 471 155.5
359 274 194.5
28 439 285.5
479 169.1 80
363 480 209.5
222 440.1 180
12 454 45.5
329 44 215.5
170 187 280.5
75 311 19.5
376 302.9 320
398 251 49.5
234 272 164.5
284 269 279.5
286 347 164.5
381 449 319.5
395 350 235.5
425 486 185.5
90 133.1 105
251 73 50.5
251 77 49.5
251 77 50.5
334 74 225.5
5 136 219.5
86 91 35.5
102 19 50.5
88 56 30.5
39 19 229.5
83 178 284.5
88 174 324.5
183 273 64.5
200 181 284.5
214 165 219.5
124 128 234.5
141 114 249.5
99 214 119.5
202 66 90.5
104 358 159.5
182 449 114.5
305 192 230.5
318 449.1 255
70 473 65.5
66 319 139.5
308 170.1 50
350 491 220.5
424 281 230.5
431 367 184.5
205 491 49.5
354 145 90.5
378.9 447 290
454 16 104.5
6 348 19.5
45 338 24.5
391 289.9 215
385.1 355 35
465 347 149.5
104 295.1 55
183.9 68 60
67 152 150.5
69 249 24.5
71 74 244.5
79 170 75.5
89 181 99.5
102 196 85.5
105 221 65.5
114 134 35.5
132 215 215.5
136 178 64.5
150 154 69.5
150 172 69.5
155 214 30.5
157 100 145.5
166 145 274.5
181 94 64.5
204 251 205.5
210 132 230.5
225 184 69.5
237 191 119.5
238 157 79.5
239 121 129.5
239 183 69.5
244 228 134.5
246 116 149.5
254 124 40.5
5 194 19.5
6 72 165.5
22 181 69.5
32 125 109.5
46 159 135.5
51 154 169.5
53 106 134.5
68 26 35.5
91 21 74.5
100 15 50.5
126 15 280.5
151 11 75.5
174 41 329.5
36 3 64.5
46 3 59.5
65 23 35.5
126 247.9 165
84 398 40.5
95 356 34.5
97 281 115.5
97 360 145.5
99 296 69.5
108 300 60.5
117 340 105.5
120 265 139.5
123 374 39.5
124 301 29.5
124 413 64.5
137 346 129.5
142 365 55.5
150 299 75.5
153 493 50.5
155 284 124.5
155 384 44.5
168 386 20.5
176 268 190.5
183 270 30.5
184 495 94.5
190 284 105.5
200 348 139.5
201 300 69.5
202 363 65.5
208 265 235.5
210 335 110.5
221 478 215.5
224 260 35.5
237 269 160.5
242 412 64.5
252 342 230.5
257 69 64.5
267 254 109.5
268 104 40.5
271 75 84.5
273 89 249.5
279 93 220.5
282 103 95.5
306 242 140.5
333 169 299.5
342 206 85.5
350 179 284.5
379 113 65.5
389 113 69.5
401 178 240.5
412 230 170.5
413 88 230.5
413 190 54.5
420 109 139.5
424 100 99.5
428 214 195.5
437 94 135.5
441 81 124.5
449 74 120.5
453 70 125.5
459 151 69.5
460 216 100.5
460 247 274.5
466 147 55.5
474 173 130.5
475 166 184.5
478 131 75.5
479 126 99.5
482 251 289.5
488 163 75.5
493 85 85.5
497 163 245.5
508 74 90.5
7 282 9.5
16 288 14.5
20 332 240.5
30 391 89.5
31 329 114.5
32 343 24.5
33 351 24.5
52 301 19.5
57 347 29.5
64 291 94.5
65 383 125.5
263 24 134.5
260 313 129.5
260 509 245.5
280 398 319.5
285 367 99.5
300 378 84.5
302 500 239.5
302 506 25.5
305 271 130.5
305 473 169.5
310 281 79.5
310 344 130.5
312 510 64.5
315 488 64.5
320 508 25.5
321 440 94.5
321 497 64.5
323 487 59.5
325 510 64.5
327 294 35.5
339 328 65.5
343 284 45.5
343 334 80.5
344 289 80.5
359 356 290.5
360 412 130.5
361 297 104.5
374 424 95.5
375 440 245.5
387 457 144.5
393 498 80.5
398 350 234.5
410 384 110.5
416 445 100.5
416 478 80.5
419 320 185.5
436 301 154.5
442 383 109.5
443 470 330.5
450 471 115.5
453 292 105.5
454 256 180.5
466 278 129.5
469 330 70.5
469 423 25.5
470 428 25.5
473 265 60.5
473 429 25.5
475 395 109.5
476 264 139.5
491 459 120.5
496 303 125.5
498 354 310.5
505 298 120.5
509 417 30.5
60 456.1 100
134 400 329.5
332 170 275.5
287 165.9 220
458 204 140.5
509 401 59.5
361 282 189.5
361 282 190.5
387 352 35.5
410 396 285.5
45.1 139 170
104 357.9 160
333 467.9 205
303.1 393 260
30 194.9 220
137.1 459 270
481 199.1 70
218 337 160.5
170 69 129.5
170 69 130.5
248 110 40.5
297 96 224.5
206 48 150.5
220.9 304 285
337 248 165.5
338 382 190.5
244.1 502 275
33 394.9 80
431 430.1 95
372 338 314.5
455 397 35.5
423.9 293 105
175.1 267 40
475 395.9 55
36.1 452 235
466 473 175.5
136.9 305 70
106 221 304.5
183.9 226 280
339 74 224.5
499 243 240.5
393 237.9 165
40 220 144.5
364 335.9 320
389 499 109.5
403 379 100.5
325.1 68 235
244 502.1 275
143 424 230.5
4 348 19.5
87 291 214.5
466 58 135.5
505 415 230.5
354.9 476 190
426 280 229.5
503 481 294.5
58 290 50.5
371 440 150.5
221.1 305 210
84 28.1 155
36 187.1 225
376.1 431 115
222 301.9 285
263.1 70 330
432 410.1 225
262.1 253 35
397 309.9 65
451.1 323 75
25.1 437 300
36 452.1 235
330 271 235.5
371 282 114.5
463.1 406 180
435.9 196 280
41.9 493 330
39 121 219.5
59.1 53 330
18 450 295.5
3.9 133 240
477 447 329.5
292 350 160.5
94 428 74.5
101 373 10.5
252 449 60.5
369 178 269.5
334 200 259.5
30 448 245.5
397 273 334.5
160 501.1 35
452.9 214 215
311.9 488 65
465 22.1 135
473 69 225.5
133 135 35.5
145 142 35.5
231 170 74.5
238 127 40.5
240 239 115.5
242 200 244.5
17 335 89.5
30 139 114.5
30 275 49.5
31 22 35.5
41 163 149.5
45 303 5.5
59 207 259.5
76 55 69.5
90 13 50.5
117 368 39.5
145 488 64.5
177 49 314.5
201 348 85.5
203 275 69.5
220 392 64.5
222 257 54.5
235 404 64.5
263 110 40.5
267 159 59.5
276 106 139.5
281 73 45.5
291 53 65.5
303 238 164.5
321 178 140.5
322 171 135.5
325 160 164.5
383 196 40.5
401 173 240.5
420 107 130.5
438 88 100.5
442 27 244.5
464 63 60.5
468 58 145.5
469 140 79.5
475 202 134.5
314 105 274.5
88 291 189.5
273 361 170.5
274 378 155.5
275 381 150.5
290 460 59.5
296 339 109.5
300 276 130.5
377 471 149.5
400 315 169.5
403 298 65.5
431 452 80.5
473 428 59.5
496 382 220.5
499 389 25.5
508 319 54.5
99.1 214 120
256 70 40.5
256 159 40.5
292 39 129.5
141 463 279.5
273 71 320.5
508 315 54.5
357.9 408 165
476 220 80.5
282 41 75.5
67 69 35.5
67 102 159.5
234 67 329.5
40 106 224.5
400 23 84.5
419 158 99.5
25 445 260.5
149 411 204.5
149 411 205.5
389 76 109.5
60 463 100.5
505 416.9 270
283 400 280.5
283 417 130.5
345 503 129.5
358 353 249.5
375 429 115.5
510 507 134.5
510 507 135.5
389.1 348 235
139 307 139.5
285 51 65.5
296 349 135.5
395 498 95.5
483 387 59.5
506 408 49.5
181 450.9 90
148 419 204.5
322 297 189.5
430 483 200.5
296 339.1 110
362 335 319.5
362 335 320.5
96 293 130.5
116 287 55.5
153 443 55.5
214 280 124.5
295 212 210.5
337 100 119.5
509 126 94.5
503 39 244.5
498 71 200.5
27 196 219.5
169 185 64.5
254 254 259.5
40 15 324.5
263 426 305.5
264 334 104.5
284 430 155.5
328 435 199.5
341 470 204.5
355 475 165.5
383 294 150.5
415 312 154.5
417 306 99.5
476 312 129.5
502 486 199.5
56 52 329.5
239 146 89.5
432 189 240.5
257 300 125.5
378.9 431 115
423 188 284.5
423 188 285.5
43 320 129.5
63 400 195.5
504.9 417 270
131 322 70.5
324 244 260.5
333 120 294.5
344 142 85.5
465 59 134.5
181 443 100.5
472 29 119.5
477 443.9 320
340.1 389 185
296.1 349 135
484 351 49.5
32.1 489 155
34.9 131 110
181.9 448 115
440 374.9 75
99 391.9 210
175 375 49.5
228 446 135.5
167 342 139.5
251 141 74.5
49 106 124.5
59 52.9 330
491 451 129.5
500 111.9 100
30 222 49.5
269 321 105.5
280 418 129.5
357 354 249.5
447 324 74.5
485 124 84.5
485 124 85.5
491 426 30.5
508 487 235.5
228.1 439 180
35 394.9 80
128.1 79 330
246 146 74.5
281 422 124.5
488 264 164.5
205.9 96 200
505 40 174.5
190 60 40.5
495.1 340 55
31 191 224.5
156 98 154.5
157 97 154.5
191 288 64.5
209 268 30.5
219 303 30.5
397 254 240.5
510 32 249.5
419.9 55 90
137 459 269.5
257 351.9 235
332 187 49.5
311 503 64.5
465 416 30.5
478 447 39.5
297 94.9 225
166.1 126 100
114 180 229.5
123 196 124.5
129 192 129.5
144 74.1 285
154 215 179.5
155 150 80.5
160 97 115.5
167 216 69.5
171 101 194.5
196 119 119.5
207 131 244.5
224 216 140.5
226 223.9 145
233 162 35.5
233 252 44.5
238 163 35.5
334 249.9 165
14 172 79.5
51 156 140.5
52 107 125.5
60.1 464 85
90 180 285.5
191 43 40.5
219 138 100.5
4 58 59.5
11.1 60 105
18 226 105.5
69 476 79.5
116 361 39.5
168 288 110.5
202 382 84.5
276 110 99.5
285 168 59.5
299 180 40.5
319 171 164.5
396 257 239.5
398 103 180.5
401 234 160.5
413 82 249.5
433 94 104.5
435 228 105.5
457 156 64.5
474 181 144.5
474 189 139.5
492 114 210.5
48 21 64.5
56 155 169.5
175 44 285.5
22 332 85.5
42 491 105.5
262 60 289.5
263 47 40.5
461 43 149.5
455.1 350 235
40.9 473 205
7 266 94.5
17 394 135.5
59 262 79.5
82 328 220.5
84 480 45.5
99 426 79.5
122 415 129.5
146 370 44.5
202 306 69.5
203 339 100.5
261 58 40.5
267 58 40.5
295 98 195.5
362 245 165.5
365 108 104.5
390 29 89.5
406 202 84.5
445 28 244.5
462 154 50.5
482 66 204.5
258 310 120.5
262 483 180.5
270 394 109.5
271 266 79.5
273 315 90.5
274 327 90.5
278 356 160.5
281 367 99.5
293 461 124.5
294 456 59.5
299 478 59.5
303 499 220.5
309 416 229.5
342 334 120.5
347 349 295.5
352 269 65.5
365 486 130.5
374 475 130.5
377 360 125.5
379 445 140.5
379 447 319.5
381 451 149.5
384 389 119.5
393 438 205.5
393 453 120.5
394 313 174.5
413 344 234.5
418 269 169.5
426 357 174.5
428 456 99.5
441 453 119.5
444 462 124.5
445 337 320.5
447 446 40.5
465 281 69.5
476 350 44.5
497 353 310.5
499 320 34.5
503 263 70.5
288 438.9 90
281.1 164 195
87 282 199.5
396 76 55.5
373 431 115.5
37 485.1 115
476 219.9 80
462 426 59.5
188.9 70 50
287 33 90.5
213 300 319.5
171 188 280.5
505.1 412 230
10 343.9 145
194 503.1 295
431.1 430 95
87 285.1 210
438 417.1 135
455 388 105.5
187 77 229.5
443 229 309.5
51 375 155.5
29 449 245.5
67 456 154.5
390 291 214.5
449 259 204.5
379 444 245.5
428 445 114.5
427 436 115.5
30 453.1 230
412 337.1 330
331 244 180.5
447 223 300.5
70 76 49.5
131 171 64.5
149 202 64.5
175 195 64.5
188 217 69.5
224 236 40.5
235 231 130.5
251 167 69.5
75 69 69.5
86 94 35.5
137 130 69.5
144 193 64.5
165 178 64.5
169 391 85.5
188 79 220.5
210 243 69.5
226 225 35.5
229 219 35.5
244 108 69.5
171 18 59.5
19 9 54.5
23 174 115.5
35 478 205.5
39 33 35.5
85 291 100.5
88 55 30.5
140 461 5.5
180 269 64.5
182 273 64.5
217 366 64.5
236 329 64.5
238 335 64.5
240 340 64.5
243 349 64.5
255 379 64.5
278 161 40.5
310 237 90.5
81 190 55.5
74 394 209.5
368 333 324.5
499 266 164.5
499 266 165.5
126 467 105.5
309 176 49.5
359 180 240.5
387 77 109.5
228 372 275.5
8 329 24.5
112 441 14.5
213 278 310.5
36 287 5.5
16 352 19.5
261 392 64.5
288 282 44.5
300 443 30.5
309 440 299.5
349 491 220.5
354 258 65.5
355 490 215.5
369 440 150.5
387 500 109.5
433 410 234.5
433 412 140.5
443 436 45.5
449 419 35.5
468 397 49.5
473 332 60.5
474 384 49.5
482 378 54.5
485 429 54.5
498 357 310.5
500 482 95.5
504 339 64.5
498.9 115 310
303 393.1 260
68 341 9.5
328 138.1 155
126 70.9 330
323 438.1 150
370 441.1 150
510 490 235.5
511 432 65.5
114 223.1 265
395 504 115.5
492 244.1 285
210 291.1 260
138.9 40 270
190.9 45 40
13.1 62 105
250 226 305.5
253 228 300.5
171 187 280.5
205 66 90.5
102 294 55.5
383 317.9 210
467 47 275.5
356 210 155.5
420.1 217 220
276 300 250.5
409 463 250.5
306 256 149.5
393.9 290 185
87.1 245 175
159 103 49.5
256 165 64.5
95 363 34.5
145 329 135.5
173 447 104.5
185 277 64.5
195 351 129.5
204 323 64.5
207 328 64.5
233 401 64.5
242 351 30.5
245 358 64.5
264 157 59.5
267 82 79.5
267 167 59.5
272 91 74.5
334 182 40.5
503 189 69.5
17 284 14.5
387 37 220.5
95 54 69.5
170 22 59.5
37 28 35.5
50 8 59.5
81 110 264.5
83 80 69.5
85 83 69.5
89 92 69.5
100 4 55.5
101 115 35.5
104 114 69.5
111 86 69.5
112 127 69.5
114 130 69.5
116 92 35.5
121 101 69.5
123 101 35.5
126 111 69.5
129 116 69.5
133 160 69.5
141 182 64.5
151 161 30.5
153 164 30.5
156 170 30.5
156 213 64.5
161 173 64.5
163 100 64.5
163 176 64.5
163 180 30.5
166 185 30.5
174 244 69.5
176 247 69.5
177 200 64.5
179 253 69.5
185 216 69.5
200 236 30.5
206 96 199.5
213 244 64.5
215 236 35.5
215 241 64.5
219 229 304.5
221 212 69.5
226 170 35.5
227 221 35.5
231 201 64.5
240 170 74.5
240 180 69.5
243 124 40.5
243 167 74.5
249 102 40.5
254 153 40.5
279 162 40.5
137 395 329.5
52 205 249.5
52 205 250.5
262 393 30.5
266 401 30.5
266 448 59.5
271 408 30.5
293 485 59.5
294 496 59.5
296 482 59.5
300 506 59.5
303 449 30.5
308 488 64.5
314 482 59.5
317 484 59.5
320 486 59.5
409 349 110.5
409 464 250.5
415 445 124.5
421 272 145.5
444 432 230.5
451 448 40.5
457 414 44.5
462 420 54.5
472 379 44.5
476 382 49.5
478 361 44.5
480 359 25.5
481 381 54.5
482 373 49.5
485 435 49.5
486 425 54.5
490 380 25.5
494 336 49.5
496 387 25.5
498 322 34.5
500 333 49.5
502 384 64.5
505 386 64.5
38 353 24.5
38 489 105.5
55 361 24.5
58 353 29.5
61 355 29.5
208 52 180.5
8 349 109.5
72 361 29.5
101 369 34.5
126 375 39.5
127 356 15.5
130 425 90.5
142 450 59.5
156 365 20.5
175 374 49.5
197 374 25.5
200 376 25.5
203 349 139.5
215 378 30.5
225 395 64.5
228 397 64.5
477 205 134.5
510 196 45.5
171 358 224.5
257 443 59.5
421 157 90.5
23.9 387 65
110 450 139.5
119.9 237 175
300 40 99.5
399 376 94.5
470 350 35.5
469 216.9 145
165 124.9 100
206.9 99 200
7 246 109.5
10 249 90.5
21 181 55.5
21 204 35.5
25 124 120.5
28 102 279.5
41 122 195.5
50 155 169.5
58 256 84.5
62 249 75.5
68 153 150.5
72 318 135.5
74 56 69.5
76 106 265.5
77 482 55.5
83 399 40.5
84 184 74.5
85 46 69.5
85 296 64.5
86 175 70.5
87 241 20.5
88 14 50.5
90 180 99.5
90 218 109.5
93 362 34.5
94 312 15.5
98 282 115.5
98 297 69.5
99 462 270.5
102 120 35.5
102 195 109.5
103 195 85.5
104 220 65.5
